ply
format ascii 1.0
comment pointcloud saved from Realsense Viewer 
element vertex 1093
property float32 x 
property float32 y
property float32 z 
property uchar red
property uchar green 
property uchar blue
property list uchar int vertex_indices 
end_header
0.575684 -0.119812 -0.652344  146 140 116 
0.579102 -0.119812 -0.652344  146 140 116 
1.17578 -0.239624 -1.30469  146 140 116 
1.19824 -0.242798 -1.32129  146 140 116 
1.19922 -0.241821 -1.31641  146 140 116 
1.20801 -0.242188 -1.31836  146 140 116 
1.21387 -0.242188 -1.31836  146 140 116 
1.21973 -0.242188 -1.31836  146 140 116 
1.22754 -0.242432 -1.31934  146 140 116 
1.23047 -0.241821 -1.31641  146 140 116 
1.23438 -0.241333 -1.31348  146 140 116 
1.24023 -0.241333 -1.31348  146 140 116 
1.24512 -0.240967 -1.31152  146 140 116 
1.24902 -0.240601 -1.30957  146 140 116 
1.25195 -0.23999 -1.30664  146 140 116 
1.25586 -0.239502 -1.30371  146 140 116 
1.25586 -0.238281 -1.29785  146 140 116 
1.25781 -0.237549 -1.29395  146 140 116 
1.26172 -0.237061 -1.29102  146 140 116 
1.26562 -0.236694 -1.28809  146 140 116 
1.27148 -0.236694 -1.28809  146 140 116 
1.27637 -0.23645 -1.28711  146 140 116 
1.2832 -0.23645 -1.28711  146 140 116 
1.28809 -0.236328 -1.28613  146 140 116 
-0.466309 -0.156738 -0.832031  107 102 84 
-0.462402 -0.156738 -0.832031  99 96 80 
-0.458984 -0.15686 -0.833008  80 91 89 
-0.455078 -0.15686 -0.833008  56 75 79 
-0.451172 -0.15686 -0.833008  37 60 67 
-0.447021 -0.15686 -0.833008  31 54 61 
-0.443115 -0.15686 -0.833008  18 34 44 
-0.439209 -0.15686 -0.833008  13 28 41 
-0.434814 -0.156738 -0.832031  14 34 49 
-0.430908 -0.156738 -0.832031  36 71 100 
-0.426758 -0.156738 -0.832031  51 103 128 
-0.421875 -0.156372 -0.830078  52 108 136 
-0.862305 -0.328857 -1.74512  53 109 139 
-0.853516 -0.328613 -1.74414  60 116 146 
-0.841309 -0.327148 -1.73633  56 112 140 
-0.82959 -0.325439 -1.72852  59 115 143 
-0.817871 -0.324219 -1.72168  59 115 143 
-0.806641 -0.322998 -1.71387  56 112 140 
-0.79541 -0.321777 -1.70801  50 108 136 
-0.784668 -0.320557 -1.70215  52 110 138 
-0.775391 -0.320068 -1.69922  52 110 138 
-0.765137 -0.319092 -1.69434  56 114 142 
-0.755371 -0.318604 -1.69141  58 116 144 
-0.74707 -0.318359 -1.69043  58 116 144 
-0.739746 -0.318604 -1.69141  58 116 144 
-0.730957 -0.318115 -1.68945  57 117 144 
-0.728516 -0.320801 -1.70312  57 117 144 
-0.349609 -0.15564 -0.826172  7 47 74 
-0.343994 -0.154785 -0.821777  36 85 113 
-0.338867 -0.154297 -0.818848  56 112 140 
-0.333252 -0.153564 -0.814941  56 112 140 
-0.328125 -0.152954 -0.812012  56 114 144 
-0.323975 -0.15271 -0.811035  56 114 144 
-0.319824 -0.152588 -0.810059  56 114 144 
-0.31665 -0.152954 -0.812012  56 114 144 
-0.312012 -0.152588 -0.810059  59 115 143 
-0.307861 -0.152344 -0.809082  58 114 142 
-0.304688 -0.15271 -0.811035  58 114 142 
-0.300537 -0.152588 -0.810059  59 115 143 
-0.296387 -0.152344 -0.809082  58 114 142 
-0.29248 -0.152344 -0.809082  58 114 142 
-0.288574 -0.152344 -0.809082  53 109 137 
-0.285889 -0.152954 -0.812012  40 102 135 
-0.281738 -0.15271 -0.811035  38 102 134 
-0.277832 -0.15271 -0.811035  39 103 135 
-0.274658 -0.153076 -0.812988  39 97 127 
-0.27124 -0.15332 -0.813965  31 80 106 
-0.266357 -0.15271 -0.811035  16 61 86 
-0.261963 -0.152344 -0.809082  24 66 85 
-0.257812 -0.152222 -0.808105  34 71 90 
-0.25293 -0.151611 -0.804688  69 83 87 
-0.248291 -0.151001 -0.801758  92 93 84 
-0.243896 -0.150635 -0.799805  103 97 82 
-0.239746 -0.150513 -0.798828  115 98 82 
-0.233887 -0.14917 -0.791992  124 105 88 
-0.229614 -0.148804 -0.790039  136 124 106 
-0.225342 -0.148438 -0.787598  147 144 130 
-0.220703 -0.147827 -0.784668  150 149 134 
-0.216431 -0.147461 -0.782715  152 151 136 
-0.212158 -0.147095 -0.780762  152 151 136 
-0.208008 -0.146729 -0.778809  153 150 136 
-0.203735 -0.146362 -0.776855  151 148 134 
-0.199585 -0.145996 -0.774902  150 147 133 
-0.195435 -0.145508 -0.772949  151 148 134 
-0.191528 -0.145386 -0.771973  153 149 138 
-0.187378 -0.14502 -0.769531  153 151 139 
-0.183472 -0.144775 -0.768555  153 151 139 
-0.17981 -0.144775 -0.768555  153 150 136 
-0.176392 -0.14502 -0.769531  151 148 134 
-0.172363 -0.144653 -0.767578  151 148 134 
-0.168457 -0.144409 -0.766602  151 148 134 
-0.164795 -0.144409 -0.766602  153 147 134 
-0.161011 -0.144287 -0.765625  153 147 134 
-0.157104 -0.144043 -0.764648  153 145 133 
-0.153564 -0.144043 -0.764648  153 145 131 
-0.14978 -0.143921 -0.763672  153 145 131 
-0.146118 -0.143921 -0.763672  153 145 131 
-0.142456 -0.143921 -0.763672  152 144 130 
-0.138672 -0.143677 -0.762695  153 145 131 
-0.135132 -0.143677 -0.762695  152 144 130 
-0.131348 -0.143433 -0.761719  152 145 128 
-0.127563 -0.143311 -0.760742  152 145 128 
-0.123779 -0.143066 -0.759766  152 145 128 
-0.120056 -0.142944 -0.758789  152 145 128 
-0.116272 -0.1427 -0.757812  153 146 129 
-0.112732 -0.1427 -0.757812  153 146 129 
-0.109009 -0.142578 -0.756836  154 147 130 
-0.105286 -0.142334 -0.755859  154 146 132 
-0.101685 -0.142334 -0.755859  153 145 131 
-0.0979614 -0.142212 -0.754883  155 146 129 
-0.0944214 -0.142212 -0.754883  156 147 130 
-0.0906982 -0.141968 -0.753906  155 146 129 
-0.0871582 -0.141968 -0.753906  154 145 128 
-0.0834351 -0.141724 -0.75293  154 145 128 
-0.079895 -0.141724 -0.75293  154 145 128 
-0.0762329 -0.141602 -0.751465  154 144 130 
-0.0725708 -0.141357 -0.750488  154 144 130 
-0.0689087 -0.141235 -0.749512  154 144 130 
-0.0653076 -0.140991 -0.748535  154 144 130 
-0.061676 -0.140869 -0.747559  154 145 128 
-0.058075 -0.140625 -0.746582  154 145 128 
-0.0544739 -0.140503 -0.745605  154 142 124 
-0.0508728 -0.140259 -0.744629  155 143 125 
-0.0473328 -0.140259 -0.744629  156 144 126 
-0.0437622 -0.140137 -0.743652  154 145 126 
-0.0402527 -0.140137 -0.743652  154 145 126 
-0.0367126 -0.140137 -0.743652  155 146 127 
-0.0332031 -0.140137 -0.743652  155 146 127 
-0.0296936 -0.140137 -0.743652  156 147 130 
-0.0261688 -0.140137 -0.743652  156 147 130 
-0.0226135 -0.139893 -0.742676  156 147 130 
-0.019104 -0.139893 -0.742676  155 146 129 
-0.0155716 -0.139648 -0.741699  156 144 128 
-0.0120468 -0.139526 -0.740723  156 144 126 
-0.00852966 -0.139282 -0.739746  154 145 126 
-0.00502014 -0.13916 -0.73877  153 144 125 
-0.00152683 -0.13916 -0.73877  154 145 126 
0.00196457 -0.138916 -0.737793  153 144 125 
0.00544739 -0.138794 -0.736816  153 144 125 
0.00893402 -0.138794 -0.736816  153 144 125 
0.0124054 -0.13855 -0.73584  153 144 125 
0.0158844 -0.13855 -0.73584  154 145 126 
0.0193634 -0.13855 -0.73584  154 145 126 
0.0228119 -0.138428 -0.734863  155 146 127 
0.0262909 -0.138428 -0.734863  154 145 126 
0.0297241 -0.138184 -0.733398  154 145 126 
0.0331421 -0.137939 -0.732422  154 145 128 
0.0365601 -0.137817 -0.731445  155 146 129 
0.039978 -0.137573 -0.730469  155 146 129 
0.0433655 -0.137451 -0.729492  154 145 128 
0.0467529 -0.137207 -0.728516  154 145 128 
0.0501404 -0.137085 -0.727539  154 145 128 
0.0534363 -0.136719 -0.725586  152 143 124 
0.0567932 -0.136475 -0.724609  155 143 125 
0.0601501 -0.136353 -0.723633  155 143 125 
0.0633545 -0.135864 -0.72168  156 144 126 
0.0667114 -0.135742 -0.720703  157 145 127 
0.0700073 -0.135498 -0.719727  156 144 126 
0.0733032 -0.135376 -0.71875  157 145 129 
0.0765991 -0.135132 -0.717773  157 145 129 
0.079895 -0.13501 -0.716797  160 148 132 
0.0831299 -0.134766 -0.715332  156 147 130 
0.0865479 -0.134766 -0.715332  155 146 129 
0.0899048 -0.134766 -0.715332  155 146 129 
0.0933228 -0.134766 -0.715332  155 146 129 
0.0966797 -0.134766 -0.715332  155 146 129 
0.100098 -0.134766 -0.715332  156 147 130 
0.103455 -0.134766 -0.715332  158 149 132 
0.106873 -0.134766 -0.715332  155 146 129 
0.110229 -0.134766 -0.715332  155 146 129 
0.113464 -0.134644 -0.714355  155 146 127 
0.116882 -0.134644 -0.714355  155 146 127 
0.120239 -0.134644 -0.714355  156 147 128 
0.123657 -0.134644 -0.714355  154 145 126 
0.126953 -0.134644 -0.714355  155 146 127 
0.130127 -0.134399 -0.713379  155 146 127 
0.133545 -0.134399 -0.713379  155 146 127 
0.136963 -0.134399 -0.713379  157 145 125 
0.140259 -0.134399 -0.713379  156 147 126 
0.143677 -0.134399 -0.713379  156 147 126 
0.147095 -0.134399 -0.713379  157 145 125 
0.150391 -0.134399 -0.713379  158 146 126 
0.153809 -0.134399 -0.713379  157 145 125 
0.156982 -0.134277 -0.712402  156 144 124 
0.160156 -0.134033 -0.711426  156 144 124 
0.163452 -0.134033 -0.711426  155 143 123 
0.166626 -0.133789 -0.710449  157 145 125 
0.1698 -0.133667 -0.709473  157 145 125 
0.173096 -0.133667 -0.709473  157 145 127 
0.176514 -0.133667 -0.709473  156 144 126 
0.17981 -0.133667 -0.709473  158 146 128 
0.182861 -0.133423 -0.708496  160 148 130 
0.186279 -0.133423 -0.708496  158 149 130 
0.189575 -0.133423 -0.708496  156 149 130 
0.192749 -0.133301 -0.70752  154 147 128 
0.195801 -0.133057 -0.706543  154 147 128 
0.198853 -0.132935 -0.705566  154 147 126 
0.202148 -0.132935 -0.705566  153 146 125 
0.2052 -0.13269 -0.70459  153 146 125 
0.208252 -0.132568 -0.703613  155 146 125 
0.211548 -0.132568 -0.703613  155 146 125 
0.2146 -0.132324 -0.702637  153 146 125 
0.217896 -0.132324 -0.702637  153 146 125 
0.220947 -0.13208 -0.70166  153 146 125 
0.224243 -0.13208 -0.70166  153 146 125 
0.227539 -0.13208 -0.70166  154 147 126 
0.230957 -0.13208 -0.70166  152 145 124 
0.234253 -0.13208 -0.70166  152 145 124 
0.237549 -0.13208 -0.70166  152 145 124 
0.240479 -0.131958 -0.700684  152 145 124 
0.243896 -0.131958 -0.700684  152 145 126 
0.247192 -0.131958 -0.700684  152 145 124 
0.250488 -0.131958 -0.700684  151 144 123 
0.253662 -0.131958 -0.700684  150 143 122 
0.256592 -0.131714 -0.699707  151 144 123 
0.26001 -0.131714 -0.699707  151 145 121 
0.262939 -0.131592 -0.698242  151 145 121 
0.266113 -0.131592 -0.698242  153 145 121 
0.269043 -0.131348 -0.697266  152 144 120 
0.271973 -0.131226 -0.696289  152 144 120 
0.274902 -0.130981 -0.695312  152 144 120 
0.27832 -0.130981 -0.695312  153 145 121 
0.281006 -0.130859 -0.694336  153 145 121 
0.283936 -0.130615 -0.693359  149 141 117 
0.287354 -0.130615 -0.693359  149 141 117 
0.290039 -0.130493 -0.692383  147 141 117 
0.293457 -0.130493 -0.692383  149 143 119 
0.296387 -0.130249 -0.691406  147 141 117 
0.299561 -0.130249 -0.691406  149 141 117 
0.302734 -0.130249 -0.691406  149 141 117 
0.305664 -0.130005 -0.69043  149 141 115 
0.308838 -0.130005 -0.69043  148 140 114 
0.312256 -0.130005 -0.69043  146 140 116 
0.31543 -0.130005 -0.69043  145 139 115 
0.318359 -0.129883 -0.689453  146 140 116 
0.321533 -0.129883 -0.689453  146 140 116 
0.324219 -0.129639 -0.688477  146 140 116 
0.327637 -0.129639 -0.688477  146 140 116 
0.330322 -0.129517 -0.6875  146 140 116 
0.333496 -0.129517 -0.6875  146 140 116 
0.336426 -0.129272 -0.686523  146 140 116 
0.339111 -0.12915 -0.685547  146 140 116 
0.341797 -0.128906 -0.68457  146 140 116 
0.345215 -0.128906 -0.68457  146 140 116 
0.3479 -0.128784 -0.683594  146 140 116 
0.351074 -0.128784 -0.683594  146 140 116 
0.35376 -0.12854 -0.682617  146 140 116 
0.356934 -0.12854 -0.682617  146 140 116 
0.360352 -0.12854 -0.682617  146 140 116 
0.363037 -0.128296 -0.681641  146 140 116 
0.366211 -0.128296 -0.681641  146 140 114 
0.369385 -0.128296 -0.681641  146 140 114 
0.37207 -0.128174 -0.680176  146 140 114 
0.375244 -0.128174 -0.680176  146 140 114 
0.378418 -0.128174 -0.680176  146 140 114 
0.381104 -0.12793 -0.679199  146 140 114 
0.384277 -0.12793 -0.679199  146 140 114 
0.387695 -0.12793 -0.679199  146 140 114 
0.390869 -0.12793 -0.679199  146 140 114 
0.394043 -0.12793 -0.679199  146 140 114 
0.397217 -0.12793 -0.679199  146 140 114 
0.400391 -0.12793 -0.679199  146 140 114 
0.403564 -0.12793 -0.679199  146 140 114 
0.40625 -0.127808 -0.678223  146 140 114 
0.409424 -0.127808 -0.678223  146 140 114 
0.412109 -0.127563 -0.677246  146 140 114 
0.415283 -0.127563 -0.677246  146 140 114 
0.417969 -0.127441 -0.67627  146 140 114 
0.42041 -0.127197 -0.675293  146 140 114 
0.423584 -0.127197 -0.675293  146 140 114 
0.42627 -0.127075 -0.674316  146 140 114 
0.429443 -0.127075 -0.674316  146 140 114 
0.431885 -0.126831 -0.67334  146 140 114 
0.43457 -0.126709 -0.672363  146 140 114 
0.437744 -0.126709 -0.672363  146 140 114 
0.440186 -0.126465 -0.671387  146 140 114 
0.442627 -0.126221 -0.67041  146 140 114 
0.445801 -0.126221 -0.67041  146 140 114 
0.448486 -0.126099 -0.669434  146 140 114 
0.45166 -0.126099 -0.669434  146 140 114 
0.454102 -0.125854 -0.668457  146 140 114 
0.457275 -0.125854 -0.668457  146 140 114 
0.460449 -0.125854 -0.668457  146 140 114 
0.463623 -0.125854 -0.668457  146 140 114 
0.466797 -0.125854 -0.668457  146 140 114 
0.469971 -0.125854 -0.668457  146 140 114 
0.473145 -0.125854 -0.668457  146 140 114 
0.475586 -0.125732 -0.66748  146 140 114 
0.478516 -0.125732 -0.66748  146 140 114 
0.480957 -0.125488 -0.666504  146 140 114 
0.484131 -0.125488 -0.666504  146 140 114 
0.486572 -0.125366 -0.665527  146 140 114 
0.489014 -0.125122 -0.664551  146 140 114 
0.491455 -0.125 -0.663574  146 140 114 
0.494629 -0.125 -0.663574  146 140 114 
0.49707 -0.124817 -0.662109  146 140 114 
0.499268 -0.124573 -0.661133  146 140 114 
0.501465 -0.12439 -0.660156  146 140 114 
0.503906 -0.124207 -0.65918  146 140 114 
0.507324 -0.124207 -0.65918  146 140 114 
0.509277 -0.124023 -0.658203  146 140 114 
0.511719 -0.12384 -0.657227  146 140 114 
0.514648 -0.12384 -0.657227  146 140 114 
0.51709 -0.123657 -0.65625  146 140 114 
0.520508 -0.123657 -0.65625  146 140 114 
0.523438 -0.123657 -0.65625  146 140 114 
0.526367 -0.123657 -0.65625  146 140 114 
0.528809 -0.123474 -0.655273  146 140 114 
0.531738 -0.123474 -0.655273  146 140 114 
0.535156 -0.123474 -0.655273  146 140 114 
0.537109 -0.123291 -0.654297  146 140 114 
0.540527 -0.123291 -0.654297  146 140 114 
0.543457 -0.123291 -0.654297  146 140 114 
0.545898 -0.123108 -0.65332  145 139 113 
0.548828 -0.123108 -0.65332  145 139 113 
0.551758 -0.123108 -0.65332  145 139 113 
0.554199 -0.122925 -0.652344  145 139 113 
0.557129 -0.122925 -0.652344  145 139 113 
0.560547 -0.122925 -0.652344  145 139 113 
0.5625 -0.122681 -0.651367  145 139 113 
0.56543 -0.122681 -0.651367  145 139 113 
0.568848 -0.122681 -0.651367  145 139 113 
0.571777 -0.122681 -0.651367  145 139 113 
0.574219 -0.122498 -0.650391  145 139 113 
0.577148 -0.122498 -0.650391  145 139 113 
0.580078 -0.122498 -0.650391  145 139 113 
1.17578 -0.244507 -1.29785  145 139 113 
1.19727 -0.247559 -1.31348  145 139 113 
1.2041 -0.247681 -1.31445  145 139 113 
1.21191 -0.248047 -1.31641  145 139 113 
1.21875 -0.248291 -1.31738  145 139 113 
1.22559 -0.248291 -1.31738  145 139 113 
1.23242 -0.248413 -1.31836  145 139 113 
1.23633 -0.247925 -1.31543  145 139 113 
1.24023 -0.247559 -1.31348  145 139 113 
1.24609 -0.247559 -1.31348  145 139 113 
1.25098 -0.24707 -1.31152  145 139 113 
1.25488 -0.246704 -1.30957  145 139 113 
1.25684 -0.24585 -1.30469  145 139 113 
1.25684 -0.244629 -1.29883  145 139 113 
1.25879 -0.243896 -1.29492  145 139 113 
1.26367 -0.24353 -1.29297  145 139 113 
1.26758 -0.243164 -1.29102  145 139 113 
1.27344 -0.243164 -1.29102  145 139 113 
1.27832 -0.24292 -1.29004  145 139 113 
1.28516 -0.24292 -1.29004  145 139 113 
1.29102 -0.24292 -1.29004  145 139 113 
-0.466309 -0.160645 -0.832031  60 90 95 
-0.462402 -0.160645 -0.832031  51 85 95 
-0.458496 -0.160645 -0.832031  39 78 96 
-0.454346 -0.160645 -0.832031  30 67 84 
-0.450439 -0.160645 -0.832031  21 45 57 
-0.446533 -0.160645 -0.832031  14 35 43 
-0.442627 -0.160645 -0.832031  10 28 37 
-0.440186 -0.161255 -0.834961  9 26 38 
-0.435303 -0.160889 -0.833008  10 30 43 
-0.432861 -0.161377 -0.835938  30 66 92 
-0.884766 -0.339111 -1.75684  57 106 132 
-0.873535 -0.338135 -1.75098  55 108 137 
-0.862793 -0.337158 -1.74609  58 111 140 
-0.851562 -0.335938 -1.74023  62 115 144 
-0.839355 -0.334473 -1.73242  58 114 142 
-0.827637 -0.333008 -1.72461  59 117 145 
-0.815918 -0.331543 -1.7168  56 114 142 
-0.804199 -0.330078 -1.70898  56 114 142 
-0.793457 -0.328857 -1.70312  50 108 136 
-0.782715 -0.327881 -1.69824  53 111 139 
-0.772949 -0.327148 -1.69434  53 111 139 
-0.763672 -0.32666 -1.69141  58 116 144 
-0.753418 -0.325684 -1.68652  58 116 144 
-0.745605 -0.325684 -1.68652  58 116 144 
-0.736328 -0.325195 -1.68457  57 117 146 
-0.734375 -0.327637 -1.69727  59 117 145 
-0.726562 -0.327881 -1.69824  59 117 145 
-0.343994 -0.158691 -0.821777  42 91 119 
-0.338379 -0.157959 -0.817871  58 115 140 
-0.332764 -0.157227 -0.813965  54 112 140 
-0.328125 -0.156738 -0.812012  57 115 143 
-0.323975 -0.156616 -0.811035  56 114 142 
-0.320557 -0.156738 -0.812012  56 114 142 
-0.31665 -0.156738 -0.812012  57 115 143 
-0.312012 -0.156372 -0.810059  57 115 143 
-0.307861 -0.15625 -0.809082  56 114 142 
-0.303955 -0.15625 -0.809082  55 115 142 
-0.300293 -0.15625 -0.809082  57 115 143 
-0.295898 -0.156006 -0.808105  58 114 142 
-0.293213 -0.156616 -0.811035  58 114 142 
-0.289062 -0.156372 -0.810059  51 109 139 
-0.285889 -0.156738 -0.812012  39 101 134 
-0.281982 -0.156738 -0.812012  38 102 134 
-0.279297 -0.157349 -0.814941  38 102 134 
-0.275391 -0.157349 -0.814941  37 97 126 
-0.270996 -0.156982 -0.812988  24 78 104 
-0.266602 -0.156738 -0.812012  10 57 84 
-0.263428 -0.157227 -0.813965  18 63 88 
-0.259033 -0.156738 -0.812012  19 66 91 
-0.248291 -0.152466 -0.790039  21 67 89 
-0.247681 -0.154419 -0.799805  28 71 92 
-0.239624 -0.151733 -0.785645  53 77 89 
-0.237427 -0.15271 -0.791016  83 94 94 
-0.233032 -0.152344 -0.789062  109 97 77 
-0.22876 -0.151978 -0.786621  119 101 81 
-0.224487 -0.151489 -0.784668  125 108 92 
-0.220215 -0.151123 -0.782715  123 106 90 
-0.215942 -0.150757 -0.780762  144 137 120 
-0.211914 -0.150635 -0.779785  152 147 129 
-0.207642 -0.150146 -0.777832  153 150 136 
-0.203491 -0.14978 -0.775879  153 147 134 
-0.199341 -0.149414 -0.773926  153 147 134 
-0.19519 -0.149048 -0.771973  150 148 136 
-0.19104 -0.148682 -0.769531  150 152 143 
-0.187134 -0.148438 -0.768555  148 152 145 
-0.183228 -0.148193 -0.767578  150 152 143 
-0.179321 -0.148071 -0.766602  150 148 136 
-0.175537 -0.147827 -0.765625  149 145 134 
-0.171631 -0.147705 -0.764648  152 146 133 
-0.167847 -0.147461 -0.763672  152 146 133 
-0.16394 -0.147339 -0.762695  152 146 133 
-0.1604 -0.147339 -0.762695  151 145 132 
-0.156738 -0.147339 -0.762695  151 143 129 
-0.152954 -0.147095 -0.761719  152 144 130 
-0.14917 -0.146851 -0.760742  152 144 130 
-0.145508 -0.146851 -0.760742  152 144 130 
-0.141968 -0.146851 -0.760742  152 144 130 
-0.138184 -0.146729 -0.759766  152 144 130 
-0.134521 -0.146729 -0.759766  152 144 130 
-0.130737 -0.146484 -0.758789  152 145 128 
-0.127075 -0.146362 -0.757812  152 145 128 
-0.123474 -0.146362 -0.757812  152 145 128 
-0.119751 -0.146118 -0.756836  152 145 128 
-0.115967 -0.145874 -0.755859  152 145 128 
-0.112244 -0.145752 -0.754883  153 146 129 
-0.108521 -0.145508 -0.753906  153 146 129 
-0.10498 -0.145508 -0.753906  153 145 131 
-0.101257 -0.145386 -0.75293  153 145 131 
-0.0977173 -0.145386 -0.75293  152 145 128 
-0.0940552 -0.145142 -0.751465  153 146 129 
-0.0904541 -0.145142 -0.751465  155 146 129 
-0.086792 -0.144897 -0.750488  155 146 129 
-0.083252 -0.144897 -0.750488  154 145 128 
-0.0795898 -0.144775 -0.749512  155 146 129 
-0.0759277 -0.144531 -0.748535  154 145 128 
-0.0723877 -0.144531 -0.748535  154 145 128 
-0.0687256 -0.144409 -0.747559  154 145 128 
-0.0650635 -0.144043 -0.745605  154 145 128 
-0.0614319 -0.143799 -0.744629  154 145 128 
-0.0578308 -0.143555 -0.743652  154 145 126 
-0.0542603 -0.143433 -0.742676  153 144 125 
-0.0507202 -0.143433 -0.742676  153 144 125 
-0.0471497 -0.143188 -0.741699  153 144 125 
-0.0436401 -0.143188 -0.741699  154 145 126 
-0.0401306 -0.143188 -0.741699  154 145 126 
-0.0365601 -0.143066 -0.740723  155 146 127 
-0.0330811 -0.143066 -0.740723  155 146 127 
-0.0295715 -0.143066 -0.740723  155 146 127 
-0.026062 -0.143066 -0.740723  156 147 128 
-0.022522 -0.142822 -0.739746  156 147 128 
-0.0189972 -0.142578 -0.73877  155 146 127 
-0.0155106 -0.142578 -0.73877  153 144 125 
-0.0119934 -0.142456 -0.737793  153 144 125 
-0.00849152 -0.142212 -0.736816  154 145 126 
-0.00500107 -0.14209 -0.73584  153 144 125 
-0.00152016 -0.14209 -0.73584  154 145 126 
0.00195694 -0.141846 -0.734863  153 144 125 
0.00543213 -0.141846 -0.734863  153 144 125 
0.00889587 -0.141602 -0.733398  154 145 126 
0.0123672 -0.141602 -0.733398  154 145 126 
0.0158081 -0.141479 -0.732422  155 146 127 
0.0192871 -0.141479 -0.732422  155 146 127 
0.0227203 -0.141235 -0.731445  155 146 127 
0.0261841 -0.141235 -0.731445  155 146 129 
0.0296021 -0.141113 -0.730469  155 146 127 
0.03302 -0.140869 -0.729492  155 146 127 
0.0364075 -0.140747 -0.728516  155 146 127 
0.0397949 -0.140503 -0.727539  155 146 127 
0.0431824 -0.140259 -0.726562  155 146 127 
0.0465698 -0.140137 -0.725586  155 146 127 
0.0499268 -0.139893 -0.724609  154 145 126 
0.0532837 -0.139771 -0.723633  155 146 127 
0.0566406 -0.139526 -0.722656  154 145 126 
0.059967 -0.139282 -0.72168  153 144 125 
0.0632935 -0.13916 -0.720703  155 146 127 
0.0665894 -0.138916 -0.719727  155 146 127 
0.0698853 -0.138794 -0.71875  154 145 126 
0.0731812 -0.13855 -0.717773  158 146 130 
0.0764771 -0.138306 -0.716797  158 146 130 
0.079895 -0.138306 -0.716797  160 148 132 
0.0831299 -0.138184 -0.715332  156 147 130 
0.0865479 -0.138184 -0.715332  154 145 128 
0.0897827 -0.137939 -0.714355  153 144 127 
0.0932007 -0.137939 -0.714355  154 145 128 
0.0965576 -0.137939 -0.714355  155 146 129 
0.0999756 -0.137939 -0.714355  156 147 130 
0.103333 -0.137939 -0.714355  156 147 130 
0.106689 -0.137939 -0.714355  154 145 128 
0.110107 -0.137939 -0.714355  155 146 129 
0.113342 -0.137817 -0.713379  155 146 129 
0.116699 -0.137817 -0.713379  155 146 127 
0.119934 -0.137573 -0.712402  155 146 127 
0.123291 -0.137573 -0.712402  155 146 127 
0.126587 -0.137573 -0.712402  154 145 126 
0.129761 -0.137451 -0.711426  155 146 127 
0.133179 -0.137451 -0.711426  155 146 127 
0.136597 -0.137451 -0.711426  155 146 125 
0.140137 -0.137573 -0.712402  156 147 126 
0.143433 -0.137573 -0.712402  156 147 126 
0.146606 -0.137451 -0.711426  155 146 125 
0.150024 -0.137451 -0.711426  156 147 126 
0.153198 -0.137207 -0.710449  156 147 128 
0.156372 -0.136963 -0.709473  155 146 127 
0.159668 -0.136963 -0.709473  155 146 127 
0.162842 -0.136841 -0.708496  154 145 126 
0.166138 -0.136841 -0.708496  156 147 126 
0.169312 -0.136597 -0.70752  155 146 125 
0.172607 -0.136597 -0.70752  155 146 127 
0.175659 -0.136475 -0.706543  155 146 127 
0.179077 -0.136475 -0.706543  155 146 127 
0.182373 -0.136475 -0.706543  156 147 128 
0.185425 -0.13623 -0.705566  156 147 128 
0.188843 -0.13623 -0.705566  154 147 128 
0.191895 -0.135986 -0.70459  154 147 128 
0.19519 -0.135986 -0.70459  153 146 127 
0.198242 -0.135864 -0.703613  153 146 127 
0.201294 -0.13562 -0.702637  153 146 125 
0.20459 -0.13562 -0.702637  152 145 124 
0.207642 -0.135498 -0.70166  153 146 125 
0.210938 -0.135498 -0.70166  153 146 125 
0.213989 -0.135254 -0.700684  152 145 124 
0.217285 -0.135254 -0.700684  152 145 124 
0.220337 -0.13501 -0.699707  152 145 124 
0.223633 -0.13501 -0.699707  152 145 124 
0.226929 -0.13501 -0.699707  151 144 123 
0.230225 -0.13501 -0.699707  152 145 124 
0.233521 -0.13501 -0.699707  151 144 123 
0.236572 -0.134888 -0.698242  152 145 124 
0.239868 -0.134888 -0.698242  152 145 124 
0.243164 -0.134888 -0.698242  152 145 126 
0.24646 -0.134888 -0.698242  152 145 126 
0.249756 -0.134888 -0.698242  151 144 125 
0.252686 -0.134644 -0.697266  150 143 122 
0.255859 -0.134644 -0.697266  152 144 120 
0.258789 -0.134521 -0.696289  152 144 120 
0.262207 -0.134521 -0.696289  151 143 119 
0.265137 -0.134277 -0.695312  152 144 120 
0.268311 -0.134277 -0.695312  152 144 120 
0.27124 -0.134155 -0.694336  151 143 117 
0.27417 -0.133911 -0.693359  149 141 115 
0.2771 -0.133667 -0.692383  151 143 117 
0.280273 -0.133667 -0.692383  149 141 115 
0.283203 -0.133545 -0.691406  149 141 115 
0.286133 -0.133301 -0.69043  149 141 115 
0.289307 -0.133301 -0.69043  148 140 114 
0.292236 -0.133179 -0.689453  147 141 117 
0.29541 -0.133179 -0.689453  146 140 116 
0.298584 -0.133179 -0.689453  146 140 116 
0.301514 -0.132935 -0.688477  145 139 115 
0.304688 -0.132935 -0.688477  147 139 113 
0.308105 -0.132935 -0.688477  148 140 114 
0.310791 -0.13269 -0.6875  147 139 115 
0.313965 -0.13269 -0.6875  147 139 115 
0.317383 -0.13269 -0.6875  148 140 114 
0.320068 -0.132568 -0.686523  147 139 113 
0.323242 -0.132568 -0.686523  145 139 113 
0.326172 -0.132324 -0.685547  145 139 113 
0.329346 -0.132324 -0.685547  145 139 113 
0.332031 -0.132202 -0.68457  145 139 113 
0.334961 -0.131958 -0.683594  145 139 113 
0.338135 -0.131958 -0.683594  145 139 113 
0.34082 -0.131714 -0.682617  145 139 113 
0.343506 -0.131592 -0.681641  145 139 113 
0.34668 -0.131592 -0.681641  145 139 113 
0.349609 -0.131348 -0.680176  147 140 111 
0.352783 -0.131348 -0.680176  147 140 111 
0.355957 -0.131348 -0.680176  147 140 111 
0.358643 -0.131226 -0.679199  147 140 111 
0.361816 -0.131226 -0.679199  147 140 111 
0.36499 -0.131226 -0.679199  147 140 111 
0.368408 -0.131226 -0.679199  147 140 111 
0.37085 -0.130981 -0.678223  147 140 111 
0.374268 -0.130981 -0.678223  147 140 111 
0.376709 -0.130859 -0.677246  147 140 111 
0.380127 -0.130859 -0.677246  147 140 111 
0.383301 -0.130859 -0.677246  147 140 111 
0.386475 -0.130859 -0.677246  147 140 111 
0.389648 -0.130859 -0.677246  147 140 111 
0.392822 -0.130859 -0.677246  147 140 111 
0.395996 -0.130859 -0.677246  147 140 111 
0.39917 -0.130859 -0.677246  147 140 111 
0.402588 -0.130859 -0.677246  147 140 111 
0.405029 -0.130615 -0.67627  147 140 111 
0.408203 -0.130615 -0.67627  147 140 111 
0.410889 -0.130371 -0.675293  147 140 111 
0.414062 -0.130371 -0.675293  147 140 111 
0.416748 -0.130249 -0.674316  147 140 111 
0.419922 -0.130249 -0.674316  147 140 111 
0.422363 -0.130005 -0.67334  147 140 111 
0.425537 -0.130005 -0.67334  147 140 111 
0.428223 -0.129883 -0.672363  147 140 111 
0.430664 -0.129639 -0.671387  147 140 111 
0.433838 -0.129639 -0.671387  147 140 111 
0.436279 -0.129395 -0.67041  147 140 111 
0.438965 -0.129272 -0.669434  147 140 111 
0.442139 -0.129272 -0.669434  147 140 111 
0.44458 -0.129028 -0.668457  147 140 111 
0.447021 -0.128906 -0.66748  147 140 111 
0.450195 -0.128906 -0.66748  147 140 111 
0.453369 -0.128906 -0.66748  147 140 111 
0.456543 -0.128906 -0.66748  147 140 111 
0.459717 -0.128906 -0.66748  147 140 111 
0.462891 -0.128906 -0.66748  147 140 111 
0.466064 -0.128906 -0.66748  147 140 111 
0.469238 -0.128906 -0.66748  146 139 110 
0.47168 -0.128662 -0.666504  146 139 110 
0.474854 -0.128662 -0.666504  146 139 110 
0.477295 -0.128418 -0.665527  146 139 110 
0.480225 -0.128418 -0.665527  146 139 110 
0.482666 -0.128296 -0.664551  146 139 110 
0.485107 -0.128052 -0.663574  146 139 110 
0.487549 -0.12793 -0.662109  146 139 110 
0.48999 -0.127686 -0.661133  146 139 110 
0.492432 -0.127563 -0.660156  146 139 110 
0.494629 -0.127319 -0.65918  146 139 110 
0.497803 -0.127319 -0.65918  146 139 110 
0.5 -0.127075 -0.658203  146 139 110 
0.502441 -0.126953 -0.657227  146 139 110 
0.505371 -0.126953 -0.657227  146 139 110 
0.507812 -0.126709 -0.65625  146 139 110 
0.510254 -0.126587 -0.655273  146 139 110 
0.513184 -0.126587 -0.655273  146 139 110 
0.516602 -0.126587 -0.655273  146 139 110 
0.518555 -0.126343 -0.654297  146 139 110 
0.521973 -0.126343 -0.654297  146 139 110 
0.524902 -0.126343 -0.654297  146 139 110 
0.527344 -0.126099 -0.65332  146 139 110 
0.530273 -0.126099 -0.65332  146 139 110 
0.533203 -0.126099 -0.65332  146 139 110 
0.536621 -0.126099 -0.65332  146 139 110 
0.539551 -0.126099 -0.65332  146 139 110 
0.541992 -0.125977 -0.652344  146 139 110 
0.544922 -0.125977 -0.652344  146 139 110 
0.547852 -0.125977 -0.652344  146 139 110 
0.550293 -0.125732 -0.651367  146 139 110 
0.553223 -0.125732 -0.651367  146 139 110 
0.555664 -0.12561 -0.650391  146 139 110 
0.558594 -0.12561 -0.650391  146 139 110 
0.561035 -0.125366 -0.649414  146 139 110 
0.563965 -0.125366 -0.649414  146 139 110 
0.566895 -0.125366 -0.649414  146 139 110 
0.569824 -0.125366 -0.649414  146 139 110 
0.573242 -0.125366 -0.649414  146 139 110 
0.575195 -0.125122 -0.648438  146 139 110 
0.578125 -0.125122 -0.648438  146 139 110 
0.581543 -0.125122 -0.648438  146 139 110 
1.19629 -0.253418 -1.3125  146 139 110 
1.20312 -0.253662 -1.31348  146 139 110 
1.21094 -0.25415 -1.31543  146 139 110 
1.21875 -0.25415 -1.31641  146 139 110 
1.22461 -0.25415 -1.31641  146 139 110 
1.23145 -0.254395 -1.31738  146 139 110 
1.23828 -0.254395 -1.31738  146 139 110 
1.24023 -0.253662 -1.31348  146 139 110 
1.24609 -0.253662 -1.31348  146 139 110 
1.25098 -0.253174 -1.31152  146 139 110 
1.25488 -0.25293 -1.30957  146 139 110 
1.25684 -0.251953 -1.30469  146 139 110 
1.25781 -0.250977 -1.2998  146 139 110 
1.26074 -0.250244 -1.29688  146 139 110 
1.26562 -0.25 -1.29492  146 139 110 
1.27051 -0.249878 -1.29395  146 139 110 
1.27637 -0.249878 -1.29395  146 139 110 
1.28223 -0.249878 -1.29395  146 139 110 
1.28906 -0.249878 -1.29395  146 139 110 
1.29492 -0.249878 -1.29395  146 139 110 
-0.465576 -0.164429 -0.831055  32 85 103 
-0.46167 -0.164429 -0.831055  30 80 99 
-0.457764 -0.164429 -0.831055  25 78 96 
-0.453857 -0.164429 -0.831055  16 58 73 
-0.451172 -0.164795 -0.833008  14 38 52 
-0.445068 -0.164062 -0.829102  9 27 36 
-0.44043 -0.163818 -0.828125  8 24 34 
-0.436523 -0.163818 -0.828125  10 28 37 
-0.433594 -0.164185 -0.830078  10 30 43 
-0.893066 -0.347412 -1.75684  35 80 105 
-0.882324 -0.34668 -1.75195  58 112 136 
-0.871582 -0.345703 -1.74707  60 114 140 
-0.860352 -0.344482 -1.74121  62 115 144 
-0.848633 -0.343018 -1.73438  59 115 143 
-0.836914 -0.341553 -1.72656  57 115 145 
-0.825195 -0.340088 -1.71875  59 117 145 
-0.812988 -0.338623 -1.71094  58 114 142 
-0.801758 -0.337158 -1.7041  58 114 142 
-0.791016 -0.335938 -1.69824  54 110 138 
-0.780762 -0.334961 -1.69336  53 111 139 
-0.770508 -0.334229 -1.68945  54 112 140 
-0.761719 -0.33374 -1.6875  58 116 144 
-0.750488 -0.332275 -1.67969  59 117 145 
-0.743652 -0.332764 -1.68164  57 117 144 
-0.734863 -0.332275 -1.67969  57 117 146 
-0.731934 -0.334717 -1.69238  57 117 144 
-0.337891 -0.161621 -0.816895  58 115 140 
-0.33252 -0.160767 -0.812988  56 114 142 
-0.327393 -0.160278 -0.810059  56 114 144 
-0.323975 -0.1604 -0.811035  55 115 144 
-0.320801 -0.160767 -0.812988  55 115 142 
-0.31665 -0.160645 -0.812012  57 115 143 
-0.313965 -0.161255 -0.814941  57 115 143 
-0.310547 -0.161377 -0.815918  57 115 143 
-0.307129 -0.161621 -0.816895  55 115 142 
-0.30249 -0.161255 -0.814941  55 115 142 
-0.300049 -0.161987 -0.818848  56 114 142 
-0.559082 -0.322754 -1.63184  39 103 135 
-0.54541 -0.32373 -1.63672  38 102 136 
-0.536621 -0.323242 -1.63379  34 94 125 
-0.513672 -0.318604 -1.61035  14 59 86 
-0.510742 -0.321533 -1.625  14 63 89 
-0.510254 -0.325928 -1.64844  14 66 91 
-0.492676 -0.31958 -1.61621  14 66 91 
-0.486328 -0.320557 -1.62012  16 68 93 
-0.47876 -0.320557 -1.62109  24 72 94 
-0.471436 -0.320801 -1.62207  26 74 96 
-0.223022 -0.154297 -0.779785  103 95 83 
-0.219849 -0.154663 -0.781738  113 99 80 
-0.215942 -0.154419 -0.780762  118 99 82 
-0.21167 -0.154053 -0.778809  137 120 104 
-0.207642 -0.153931 -0.777832  150 138 120 
-0.203491 -0.153442 -0.775879  152 144 132 
-0.199341 -0.153076 -0.773926  151 145 132 
-0.194824 -0.152466 -0.770996  149 150 144 
-0.19104 -0.152344 -0.769531  144 152 151 
-0.18689 -0.151855 -0.767578  142 153 151 
-0.182739 -0.151489 -0.765625  144 152 149 
-0.178833 -0.151245 -0.764648  147 148 135 
-0.175293 -0.151245 -0.764648  148 145 131 
-0.171143 -0.150879 -0.762695  150 144 131 
-0.167358 -0.150635 -0.761719  151 145 132 
-0.163574 -0.150513 -0.760742  151 145 132 
-0.159668 -0.150269 -0.759766  152 144 132 
-0.156128 -0.150269 -0.759766  152 144 132 
-0.152344 -0.150146 -0.758789  152 144 130 
-0.148682 -0.150146 -0.758789  152 144 130 
-0.144897 -0.149902 -0.757812  151 143 129 
-0.141357 -0.149902 -0.757812  152 144 130 
-0.137573 -0.149658 -0.756836  152 144 130 
-0.134033 -0.149658 -0.756836  152 144 130 
-0.130249 -0.149536 -0.755859  152 144 130 
-0.126709 -0.149536 -0.755859  153 145 131 
-0.122986 -0.149292 -0.754883  152 144 130 
-0.119263 -0.149048 -0.753906  151 143 129 
-0.11554 -0.148926 -0.75293  152 145 128 
-0.111816 -0.148682 -0.751465  153 146 129 
-0.108276 -0.148682 -0.751465  152 145 128 
-0.104553 -0.14856 -0.750488  152 144 130 
-0.101013 -0.14856 -0.750488  152 144 130 
-0.0973511 -0.148315 -0.749512  152 144 130 
-0.09375 -0.148315 -0.749512  153 146 129 
-0.09021 -0.148315 -0.749512  155 146 129 
-0.0865479 -0.148071 -0.748535  155 146 129 
-0.0830078 -0.148071 -0.748535  155 146 129 
-0.0793457 -0.147949 -0.747559  155 146 129 
-0.0757446 -0.147705 -0.746582  154 145 128 
-0.0720825 -0.147461 -0.745605  154 145 128 
-0.0684814 -0.147339 -0.744629  154 145 128 
-0.0648804 -0.147095 -0.743652  154 145 128 
-0.0612793 -0.146973 -0.742676  154 145 128 
-0.0576782 -0.146729 -0.741699  154 145 128 
-0.0541077 -0.146484 -0.740723  154 145 128 
-0.0505371 -0.146362 -0.739746  153 144 127 
-0.0470276 -0.146362 -0.739746  153 144 127 
-0.043457 -0.146118 -0.73877  153 144 127 
-0.039978 -0.146118 -0.73877  154 145 128 
-0.0364685 -0.146118 -0.73877  155 146 129 
-0.0329895 -0.146118 -0.73877  155 146 129 
-0.0294495 -0.145874 -0.737793  155 146 127 
-0.0259552 -0.145874 -0.737793  155 146 127 
-0.0224304 -0.145752 -0.736816  155 146 127 
-0.0189514 -0.145752 -0.736816  155 146 127 
-0.0154419 -0.145508 -0.73584  154 145 126 
-0.0119476 -0.145386 -0.734863  154 145 126 
-0.008461 -0.145142 -0.733398  154 145 126 
-0.00498199 -0.144897 -0.732422  154 145 126 
-0.00151443 -0.144897 -0.732422  154 145 126 
0.00194931 -0.144775 -0.731445  154 145 126 
0.00540924 -0.144775 -0.731445  154 145 126 
0.00887299 -0.144775 -0.731445  155 146 127 
0.0123215 -0.144531 -0.730469  155 146 129 
0.0157776 -0.144531 -0.730469  155 146 129 
0.0192108 -0.144287 -0.729492  155 146 129 
0.0226593 -0.144287 -0.729492  156 147 130 
0.0260773 -0.144165 -0.728516  156 147 130 
0.02948 -0.143921 -0.727539  156 147 128 
0.0328674 -0.143799 -0.726562  156 147 128 
0.0362549 -0.143555 -0.725586  156 147 128 
0.0396423 -0.143311 -0.724609  155 146 127 
0.0429993 -0.143188 -0.723633  155 146 127 
0.0463562 -0.142944 -0.722656  155 146 127 
0.0497131 -0.1427 -0.72168  155 146 127 
0.0531311 -0.1427 -0.72168  155 146 127 
0.056488 -0.142578 -0.720703  155 146 127 
0.0598145 -0.142334 -0.719727  154 145 126 
0.0631104 -0.142212 -0.71875  155 146 127 
0.0664062 -0.141968 -0.717773  155 146 127 
0.0698242 -0.141968 -0.717773  155 146 127 
0.0731201 -0.141724 -0.716797  156 147 130 
0.076416 -0.141602 -0.715332  155 146 129 
0.0797729 -0.141602 -0.715332  156 147 130 
0.0830688 -0.141357 -0.714355  156 147 130 
0.0864258 -0.141357 -0.714355  155 146 129 
0.0896606 -0.141113 -0.713379  155 146 129 
0.0930786 -0.141113 -0.713379  154 145 128 
0.0964355 -0.141113 -0.713379  154 145 128 
0.0997925 -0.141113 -0.713379  155 146 129 
0.103027 -0.140991 -0.712402  155 146 129 
0.106445 -0.140991 -0.712402  154 145 128 
0.109802 -0.140991 -0.712402  155 146 127 
0.112976 -0.140747 -0.711426  155 146 127 
0.116394 -0.140747 -0.711426  155 146 127 
0.119568 -0.140625 -0.710449  155 146 127 
0.122925 -0.140625 -0.710449  155 146 127 
0.126099 -0.140381 -0.709473  154 145 126 
0.129395 -0.140381 -0.709473  154 145 126 
0.132812 -0.140381 -0.709473  154 145 126 
0.136108 -0.140381 -0.709473  155 146 127 
0.139771 -0.140625 -0.710449  155 146 127 
0.142822 -0.140381 -0.709473  155 146 127 
0.14624 -0.140381 -0.709473  156 147 128 
0.149536 -0.140381 -0.709473  155 146 127 
0.15271 -0.140137 -0.708496  158 149 130 
0.155884 -0.140015 -0.70752  155 146 127 
0.15918 -0.140015 -0.70752  155 146 125 
0.162354 -0.139771 -0.706543  155 146 125 
0.165405 -0.139526 -0.705566  155 146 127 
0.168823 -0.139526 -0.705566  155 146 127 
0.171875 -0.139404 -0.70459  155 146 127 
0.175171 -0.139404 -0.70459  155 146 127 
0.178345 -0.13916 -0.703613  155 146 127 
0.181641 -0.13916 -0.703613  155 146 127 
0.184937 -0.13916 -0.703613  155 146 127 
0.187988 -0.138916 -0.702637  155 146 127 
0.191284 -0.138916 -0.702637  153 146 127 
0.194336 -0.138794 -0.70166  153 146 127 
0.197754 -0.138794 -0.70166  152 145 126 
0.200684 -0.13855 -0.700684  153 146 127 
0.204102 -0.13855 -0.700684  151 144 125 
0.207031 -0.138428 -0.699707  152 145 126 
0.210083 -0.138184 -0.698242  153 146 127 
0.213379 -0.138184 -0.698242  152 145 124 
0.216431 -0.137939 -0.697266  152 145 124 
0.219727 -0.137939 -0.697266  151 144 123 
0.223022 -0.137939 -0.697266  151 144 123 
0.226318 -0.137939 -0.697266  151 144 123 
0.229614 -0.137939 -0.697266  151 144 123 
0.232544 -0.137817 -0.696289  153 144 123 
0.23584 -0.137817 -0.696289  153 144 123 
0.239136 -0.137817 -0.696289  151 144 123 
0.242432 -0.137817 -0.696289  150 143 122 
0.245728 -0.137817 -0.696289  150 143 122 
0.248657 -0.137573 -0.695312  150 143 122 
0.251953 -0.137573 -0.695312  149 142 121 
0.255127 -0.137573 -0.695312  147 140 119 
0.258057 -0.137329 -0.694336  151 143 119 
0.260986 -0.137207 -0.693359  151 143 119 
0.264404 -0.137207 -0.693359  151 143 119 
0.26709 -0.136963 -0.692383  149 141 117 
0.27002 -0.136841 -0.691406  151 143 117 
0.273438 -0.136841 -0.691406  149 141 115 
0.276123 -0.136597 -0.69043  149 141 115 
0.279053 -0.136353 -0.689453  149 141 115 
0.282471 -0.136353 -0.689453  148 140 114 
0.285156 -0.13623 -0.688477  148 140 114 
0.288086 -0.135986 -0.6875  146 138 112 
0.29126 -0.135986 -0.6875  148 140 114 
0.294434 -0.135986 -0.6875  148 140 116 
0.297363 -0.135742 -0.686523  147 139 115 
0.300537 -0.135742 -0.686523  146 138 112 
0.303955 -0.135742 -0.686523  148 140 114 
0.307129 -0.135742 -0.686523  147 139 113 
0.309814 -0.13562 -0.685547  147 139 115 
0.313232 -0.13562 -0.685547  146 138 114 
0.315918 -0.135376 -0.68457  144 138 112 
0.319092 -0.135376 -0.68457  146 141 112 
0.322021 -0.135254 -0.683594  146 139 110 
0.325195 -0.135254 -0.683594  146 139 110 
0.327881 -0.13501 -0.682617  146 139 110 
0.331055 -0.13501 -0.682617  146 139 110 
0.333984 -0.134766 -0.681641  146 139 110 
0.33667 -0.134644 -0.680176  146 139 110 
0.339355 -0.134399 -0.679199  146 139 110 
0.342529 -0.134399 -0.679199  146 139 110 
0.345215 -0.134155 -0.678223  146 139 110 
0.348389 -0.134155 -0.678223  146 139 110 
0.351807 -0.134155 -0.678223  146 139 110 
0.354492 -0.134033 -0.677246  146 139 110 
0.357666 -0.134033 -0.677246  146 139 110 
0.36084 -0.134033 -0.677246  146 139 110 
0.364014 -0.134033 -0.677246  146 139 110 
0.366699 -0.133789 -0.67627  146 139 110 
0.369873 -0.133789 -0.67627  146 139 110 
0.372559 -0.133667 -0.675293  146 139 110 
0.375732 -0.133667 -0.675293  146 139 110 
0.378906 -0.133667 -0.675293  146 139 110 
0.38208 -0.133667 -0.675293  146 139 110 
0.385254 -0.133667 -0.675293  146 139 110 
0.388428 -0.133667 -0.675293  146 139 110 
0.391602 -0.133667 -0.675293  146 139 110 
0.394775 -0.133667 -0.675293  146 139 110 
0.397461 -0.133423 -0.674316  146 139 110 
0.400635 -0.133423 -0.674316  146 139 110 
0.403809 -0.133423 -0.674316  146 139 110 
0.406494 -0.133179 -0.67334  146 139 110 
0.409668 -0.133179 -0.67334  146 139 110 
0.412109 -0.133057 -0.672363  146 139 110 
0.415283 -0.133057 -0.672363  146 139 110 
0.418701 -0.133057 -0.672363  146 139 110 
0.421143 -0.132812 -0.671387  146 139 110 
0.424316 -0.132812 -0.671387  146 139 110 
0.426758 -0.132568 -0.67041  146 139 110 
0.429932 -0.132568 -0.67041  146 139 110 
0.432617 -0.132446 -0.669434  146 139 110 
0.435059 -0.132202 -0.668457  146 139 110 
0.438232 -0.132202 -0.668457  146 139 110 
0.440674 -0.13208 -0.66748  146 139 110 
0.443115 -0.131836 -0.666504  146 139 110 
0.446289 -0.131836 -0.666504  146 139 110 
0.44873 -0.131592 -0.665527  146 139 110 
0.451904 -0.131592 -0.665527  146 138 112 
0.455078 -0.131592 -0.665527  146 138 112 
0.458252 -0.131592 -0.665527  146 138 112 
0.461426 -0.131592 -0.665527  146 138 112 
0.4646 -0.131592 -0.665527  146 138 112 
0.467773 -0.131592 -0.665527  146 138 112 
0.470947 -0.131592 -0.665527  146 138 112 
0.473389 -0.13147 -0.664551  146 138 112 
0.47583 -0.131226 -0.663574  146 138 112 
0.479004 -0.131226 -0.663574  146 138 112 
0.481201 -0.130981 -0.662109  146 138 112 
0.483643 -0.130859 -0.661133  146 138 112 
0.486084 -0.130615 -0.660156  146 138 112 
0.488525 -0.130493 -0.65918  146 138 112 
0.490967 -0.130249 -0.658203  146 138 112 
0.493164 -0.130005 -0.657227  146 138 112 
0.495605 -0.129883 -0.65625  146 138 112 
0.498779 -0.129883 -0.65625  146 138 112 
0.500977 -0.129639 -0.655273  146 138 112 
0.503906 -0.129639 -0.655273  146 138 112 
0.506348 -0.129395 -0.654297  146 138 112 
0.509277 -0.129395 -0.654297  146 138 112 
0.511719 -0.129272 -0.65332  146 138 112 
0.514648 -0.129272 -0.65332  146 138 112 
0.51709 -0.129028 -0.652344  146 138 112 
0.52002 -0.129028 -0.652344  146 138 112 
0.523438 -0.129028 -0.652344  146 138 112 
0.526367 -0.129028 -0.652344  146 138 112 
0.528809 -0.128906 -0.651367  146 138 112 
0.531738 -0.128906 -0.651367  146 138 112 
0.534668 -0.128906 -0.651367  146 138 112 
0.538086 -0.128906 -0.651367  146 138 112 
0.541016 -0.128906 -0.651367  146 138 112 
0.543457 -0.128662 -0.650391  146 138 112 
0.546387 -0.128662 -0.650391  146 138 112 
0.549316 -0.128662 -0.650391  146 138 112 
0.551758 -0.128418 -0.649414  146 138 112 
0.553711 -0.128296 -0.648438  146 138 112 
0.557129 -0.128296 -0.648438  146 138 112 
0.560059 -0.128296 -0.648438  145 137 111 
0.562012 -0.128052 -0.647461  145 137 111 
0.56543 -0.128052 -0.647461  145 137 111 
0.568359 -0.128052 -0.647461  145 137 111 
0.571289 -0.128052 -0.647461  145 137 111 
0.574219 -0.128052 -0.647461  145 137 111 
0.57666 -0.127808 -0.646484  145 137 111 
0.57959 -0.127808 -0.646484  145 137 111 
0.582031 -0.127686 -0.645508  145 137 111 
1.20508 -0.260254 -1.31543  145 137 111 
1.21094 -0.260254 -1.31543  145 137 111 
1.21875 -0.260498 -1.31641  145 137 111 
1.22461 -0.260498 -1.31641  145 137 111 
1.23047 -0.260498 -1.31641  145 137 111 
1.2373 -0.260498 -1.31641  145 137 111 
1.23828 -0.259521 -1.31152  145 137 111 
1.24609 -0.259766 -1.3125  145 137 111 
1.25 -0.259277 -1.31055  145 137 111 
1.25293 -0.258789 -1.30762  145 137 111 
1.25684 -0.258057 -1.30469  145 137 111 
1.26074 -0.257812 -1.30273  145 137 111 
1.2627 -0.256836 -1.29883  145 137 111 
1.26855 -0.256592 -1.29785  145 137 111 
1.27344 -0.256592 -1.29688  145 137 111 
1.28027 -0.256592 -1.29785  145 137 111 
1.28613 -0.256592 -1.29785  145 137 111 
1.29297 -0.256592 -1.29785  145 137 111 
1.29883 -0.256592 -1.29785  145 137 111 
-0.465088 -0.168091 -0.830078  27 81 105 
-0.462402 -0.168579 -0.832031  25 79 103 
-0.458984 -0.168701 -0.833008  23 65 80 
-0.449951 -0.16687 -0.824219  8 36 51 
-0.446777 -0.167114 -0.825195  9 26 38 
-0.442871 -0.167114 -0.825195  8 24 34 
-0.439453 -0.167358 -0.826172  11 27 37 
-0.436035 -0.16748 -0.827148  10 27 39 
-0.901855 -0.355957 -1.75781  11 33 47 
-0.890625 -0.35498 -1.75195  47 96 122 
-0.879883 -0.354004 -1.74707  61 118 143 
-0.868652 -0.352783 -1.74121  57 115 143 
-0.857422 -0.351562 -1.73535  58 118 145 
-0.845215 -0.349854 -1.72754  53 113 140 
-0.833496 -0.348145 -1.71875  58 116 144 
-0.821777 -0.346924 -1.71191  58 116 144 
-0.810059 -0.345215 -1.7041  57 115 143 
-0.79834 -0.34375 -1.69727  56 114 142 
-0.787598 -0.342529 -1.69141  54 110 138 
-0.777832 -0.341797 -1.6875  55 111 139 
-0.768066 -0.34082 -1.68262  56 114 142 
-0.759277 -0.340576 -1.68066  58 116 144 
-0.75 -0.339844 -1.67773  59 117 145 
-0.741699 -0.339844 -1.67773  58 116 146 
-0.731934 -0.339111 -1.67383  57 117 146 
-0.728027 -0.34082 -1.68262  57 117 146 
-0.718262 -0.340088 -1.67871  57 117 146 
-0.33252 -0.164673 -0.812988  57 115 143 
-0.328125 -0.164429 -0.812012  56 114 142 
-0.323975 -0.164307 -0.811035  55 115 142 
-0.320801 -0.164673 -0.812988  55 115 142 
-0.317871 -0.165039 -0.814941  57 115 143 
-0.313965 -0.165039 -0.814941  57 115 143 
-0.310059 -0.165039 -0.814941  56 114 142 
-0.610352 -0.328857 -1.62402  57 115 143 
-0.602051 -0.328613 -1.62207  56 114 142 
-0.593262 -0.328125 -1.62012  56 114 142 
-0.584961 -0.327637 -1.61816  54 112 140 
-0.577148 -0.327637 -1.61816  56 114 142 
-0.570312 -0.327881 -1.61914  52 112 139 
-0.562988 -0.328369 -1.62109  43 108 135 
-0.557129 -0.329346 -1.62598  37 104 135 
-0.550781 -0.330078 -1.62988  36 103 136 
-0.542969 -0.329834 -1.62891  34 101 134 
-0.53418 -0.329346 -1.62598  33 91 123 
-0.524414 -0.328125 -1.62012  9 58 86 
-0.515137 -0.327148 -1.61523  12 57 86 
-0.509766 -0.328613 -1.62207  11 63 88 
-0.500488 -0.327393 -1.61719  13 65 90 
-0.490234 -0.325684 -1.60742  13 65 90 
-0.490234 -0.330811 -1.63281  15 67 92 
-0.48291 -0.331055 -1.63477  16 68 93 
-0.476074 -0.331787 -1.6377  18 70 95 
-0.466553 -0.330566 -1.63184  22 71 95 
-0.218994 -0.157715 -0.778809  50 85 100 
-0.214844 -0.157349 -0.776855  94 94 88 
-0.21167 -0.157715 -0.778809  109 100 83 
-0.207153 -0.157104 -0.775879  115 99 78 
-0.203247 -0.156982 -0.774902  121 104 86 
-0.199097 -0.156494 -0.772949  136 122 105 
-0.194824 -0.156128 -0.770996  143 150 144 
-0.190674 -0.155762 -0.768555  142 152 155 
-0.18689 -0.155518 -0.767578  140 151 151 
-0.182495 -0.154907 -0.764648  144 152 151 
-0.178467 -0.154541 -0.762695  145 147 136 
-0.174805 -0.154541 -0.762695  147 145 133 
-0.170776 -0.154053 -0.760742  150 144 131 
-0.16687 -0.153931 -0.759766  151 145 132 
-0.163086 -0.153687 -0.758789  152 146 133 
-0.159546 -0.153687 -0.758789  151 145 132 
-0.155762 -0.153442 -0.757812  151 145 132 
-0.151978 -0.15332 -0.756836  152 144 130 
-0.148193 -0.153076 -0.755859  152 145 128 
-0.144531 -0.153076 -0.755859  151 144 127 
-0.140869 -0.152832 -0.754883  151 144 127 
-0.137207 -0.152832 -0.754883  152 145 128 
-0.133545 -0.15271 -0.753906  152 145 128 
-0.129883 -0.15271 -0.753906  152 145 128 
-0.126221 -0.152466 -0.75293  153 146 129 
-0.122498 -0.152222 -0.751465  152 145 128 
-0.118774 -0.1521 -0.750488  153 146 129 
-0.115234 -0.1521 -0.750488  152 145 128 
-0.111511 -0.151855 -0.749512  153 146 129 
-0.107849 -0.151611 -0.748535  152 145 128 
-0.104309 -0.151611 -0.748535  151 144 127 
-0.100586 -0.151489 -0.747559  154 145 128 
-0.0970459 -0.151489 -0.747559  154 145 128 
-0.0935059 -0.151489 -0.747559  154 145 128 
-0.0898438 -0.151245 -0.746582  154 145 128 
-0.0863037 -0.151245 -0.746582  154 145 128 
-0.0827026 -0.151001 -0.745605  154 145 128 
-0.0790405 -0.150879 -0.744629  155 146 129 
-0.0755005 -0.150879 -0.744629  154 145 128 
-0.0718994 -0.150635 -0.743652  154 145 128 
-0.0682983 -0.150391 -0.742676  154 145 128 
-0.0646973 -0.150269 -0.741699  154 145 128 
-0.0610962 -0.150024 -0.740723  154 145 128 
-0.0575256 -0.14978 -0.739746  154 145 128 
