ply
format ascii 1.0
comment Generated by the sample_export_ply.py script 4.24.0.1201
element vertex 1409
property float x
property float y
property float z
property uchar red
property uchar green
property uchar blue
element face 0
property list uchar int vertex_index
end_header
0.084751 0.092676 0.59463 24 24 24
0.08797 0.093194 0.59782 31 31 31
0.091831 0.094342 0.60503 21 21 21
0.095541 0.095271 0.61083 19 19 19
0.099001 0.095905 0.61472 19 19 19
0.101741 0.095825 0.61403 21 21 21
0.103775 0.095103 0.60921 23 23 23
0.106192 0.094761 0.60682 26 26 26
0.10846 0.094306 0.60369 31 31 31
0.108262 0.091784 0.58733 41 41 41
0.108763 0.089963 0.57544 70 70 70
0.109913 0.088753 0.56746 110 110 110
0.114945 0.09066 0.5794 63 63 63
0.120006 0.092503 0.5909 52 52 52
0.123312 0.092942 0.59341 39 39 39
0.126978 0.093627 0.59747 30 30 30
0.130065 0.093865 0.59866 26 26 26
0.133419 0.094282 0.60097 21 21 21
0.135385 0.093721 0.59703 19 19 19
0.138113 0.093699 0.59651 16 16 16
0.14066 0.093558 0.59521 14 14 14
0.141908 0.092575 0.58854 13 13 13
0.143711 0.091984 0.58436 19 19 19
0.146369 0.091952 0.5837 24 24 24
0.151439 0.093409 0.59247 34 34 34
0.156967 0.095091 0.60263 24 24 24
0.160933 0.095785 0.60649 69 69 69
0.164719 0.09635 0.60951 89 89 89
0.167078 0.096075 0.60718 98 98 98
0.169351 0.09576 0.60459 102 102 102
0.171736 0.095519 0.60243 102 102 102
0.173934 0.095182 0.59965 105 105 105
0.175853 0.094706 0.59598 109 109 109
0.178238 0.094492 0.59393 105 105 105
0.180411 0.094174 0.5912 103 103 103
0.182224 0.09368 0.58736 104 104 104
0.184383 0.093376 0.58468 103 103 103
0.186886 0.093253 0.58311 86 86 86
0.187099 0.092007 0.5745 78 78 78
0.188022 0.091142 0.56827 75 75 75
0.189111 0.090379 0.56265 71 71 71
0.190507 0.089783 0.55807 72 72 72
0.192661 0.089555 0.55575 79 79 79
0.193358 0.088666 0.54931 84 84 84
0.195369 0.088394 0.54669 85 85 85
0.197762 0.0883 0.54514 88 88 88
0.20011 0.088189 0.54346 90 90 90
0.201696 0.087749 0.53974 90 90 90
0.203609 0.087461 0.53694 93 93 93
0.206095 0.087423 0.53565 91 91 91
0.209447 0.087749 0.53657 100 100 100
0.212827 0.088078 0.53748 112 112 112
0.215425 0.08808 0.53637 158 158 158
0.217983 0.088065 0.53515 186 186 186
0.220367 0.087982 0.53349 176 176 176
0.22251 0.087805 0.53126 171 171 171
0.225026 0.087778 0.52994 157 157 157
0.226969 0.08753 0.52728 153 153 153
0.22877 0.087234 0.52434 156 156 156
0.229043 0.086368 0.518 154 154 154
0.231125 0.086196 0.51584 156 156 156
0.233267 0.08605 0.51385 153 153 153
0.234686 0.085643 0.51033 147 147 147
0.237284 0.085671 0.50944 140 140 140
0.239745 0.085649 0.50828 126 126 126
0.241936 0.085531 0.50659 118 118 118
0.243728 0.085277 0.50414 124 124 124
0.245429 0.084997 0.5016 122 122 122
0.247688 0.084913 0.50027 117 117 117
0.249773 0.084772 0.49867 114 114 114
0.2515 0.084513 0.49645 110 110 110
0.252254 0.083936 0.49243 107 107 107
0.253319 0.083473 0.48916 99 99 99
0.25619 0.083607 0.48948 95 95 95
0.257827 0.083341 0.48754 90 90 90
0.258061 0.08263 0.48308 86 86 86
0.259124 0.082195 0.48033 87 87 87
0.260748 0.081945 0.47874 86 86 86
0.264609 0.082396 0.48134 78 78 78
-0.247636 0.075973 0.43219 4 4 4
-0.238381 0.073782 0.41937 3 3 3
-0.23762 0.074203 0.42148 4 4 4
-0.234067 0.073752 0.41872 4 4 4
-0.229876 0.073091 0.41483 5 5 5
-0.227881 0.073121 0.41494 6 6 6
-0.227538 0.073688 0.41817 5 5 5
-0.227774 0.074454 0.42262 6 6 6
-0.224486 0.074072 0.42062 6 6 6
-0.223299 0.074382 0.42262 6 6 6
-0.219571 0.073844 0.41988 7 7 7
-0.217062 0.073709 0.4195 7 7 7
-0.214638 0.073601 0.41933 7 7 7
-0.215053 0.074474 0.42483 8 8 8
-0.212548 0.074343 0.42466 7 7 7
-0.209832 0.074135 0.42411 7 7 7
-0.20734 0.074002 0.42404 8 8 8
-0.204419 0.073712 0.42312 9 9 9
-0.203292 0.07407 0.42595 10 10 10
-0.200704 0.073897 0.42578 9 9 9
-0.199818 0.074354 0.42927 10 10 10
-0.196014 0.073723 0.4265 10 10 10
-0.195267 0.074241 0.4304 10 10 10
-0.193345 0.074318 0.43178 11 11 11
-0.190336 0.073975 0.43072 11 11 11
-0.187058 0.073519 0.429 12 12 12
-0.184563 0.073363 0.42903 11 11 11
-0.182979 0.07357 0.43118 12 12 12
-0.180197 0.073294 0.43051 13 13 13
-0.175567 0.072252 0.4253 13 13 13
-0.172007 0.07163 0.42255 12 12 12
-0.170077 0.07168 0.42374 12 12 12
-0.169777 0.072427 0.42905 12 12 12
-0.167259 0.072234 0.42879 12 12 12
-0.161597 0.070662 0.4203 13 13 13
-0.158337 0.070113 0.41786 13 13 13
-0.155631 0.069799 0.41678 12 12 12
-0.153733 0.069844 0.41784 11 11 11
-0.15226 0.070085 0.42005 13 13 13
-0.150443 0.070173 0.42132 12 12 12
-0.146032 0.069037 0.41522 13 13 13
-0.147068 0.07048 0.42461 13 13 13
-0.145109 0.070508 0.42547 12 12 12
-0.138401 0.068196 0.41217 13 13 13
-0.1329 0.066422 0.40206 13 13 13
-0.130206 0.066019 0.40021 14 14 14
-0.1264 0.065032 0.39479 14 14 14
-0.123805 0.064649 0.39301 15 15 15
-0.121804 0.064569 0.39304 18 18 18
0 0 0 0 0 0
-0.099987 0.054661 0.33357 73 73 73
-0.098036 0.054446 0.33265 109 109 109
-0.093631 0.052839 0.32321 142 142 142
-0.091971 0.052754 0.32304 154 154 154
-0.0895 0.052193 0.31994 158 158 158
-0.087281 0.051763 0.31763 174 174 174
-0.085726 0.051717 0.31766 175 175 175
-0.084023 0.05158 0.31711 175 175 175
-0.082107 0.051305 0.3157 198 198 198
-0.080228 0.051043 0.31436 237 237 237
0 0 0 0 0 0
0 0 0 0 0 0
0 0 0 0 0 0
0 0 0 0 0 0
0 0 0 0 0 0
0 0 0 0 0 0
0 0 0 0 0 0
0 0 0 0 0 0
0 0 0 0 0 0
0 0 0 0 0 0
0 0 0 0 0 0
0 0 0 0 0 0
0 0 0 0 0 0
0 0 0 0 0 0
-0.058771 0.051433 0.31961 237 237 237
-0.057496 0.051609 0.32083 212 212 212
-0.056168 0.051746 0.32179 205 205 205
-0.054822 0.051872 0.32269 195 195 195
-0.053348 0.051882 0.32285 183 183 183
-0.052369 0.052388 0.3261 164 164 164
-0.051309 0.052839 0.32901 162 162 162
-0.050053 0.05311 0.33078 150 150 150
-0.049154 0.053789 0.33509 132 132 132
-0.047888 0.054097 0.33709 127 127 127
-0.047433 0.055372 0.34511 122 122 122
-0.046092 0.055665 0.34701 110 110 110
-0.045072 0.056382 0.35155 107 107 107
-0.045299 0.058769 0.3665 88 88 88
-0.044007 0.059293 0.36983 68 68 68
-0.043018 0.060284 0.37607 27 27 27
-0.041427 0.060478 0.37734 9 9 9
-0.040101 0.061094 0.38123 8 8 8
0 0 0 0 0 0
-0.041832 0.069817 0.43576 10 10 10
-0.040952 0.071774 0.44803 11 11 11
-0.039701 0.073254 0.45731 11 11 11
-0.03801 0.074043 0.46228 10 10 10
-0.036045 0.074358 0.46428 10 10 10
-0.034796 0.076283 0.47634 10 10 10
-0.032475 0.075958 0.47434 10 10 10
-0.030065 0.075365 0.47066 9 9 9
-0.028331 0.076504 0.4778 11 11 11
-0.02646 0.077434 0.48363 10 10 10
-0.024202 0.077295 0.48279 11 11 11
-0.022053 0.077513 0.48417 10 10 10
-0.02002 0.078233 0.48868 10 10 10
-0.01793 0.078887 0.49278 10 10 10
-0.015754 0.079292 0.49533 10 10 10
-0.013493 0.079331 0.49559 10 10 10
-0.011285 0.079762 0.49829 10 10 10
-0.0089 0.07885 0.4926 10 10 10
-0.006498 0.077108 0.48172 11 11 11
0 0 0 0 0 0
-0.001827 0.067516 0.4218 43 43 43
0.000103 0.06632 0.41433 50 50 50
0.001985 0.065835 0.4113 45 45 45
0.003847 0.065468 0.409 43 43 43
0.005703 0.065269 0.40776 43 43 43
0.007587 0.065421 0.4087 41 41 41
0.009386 0.064922 0.40558 52 52 52
0.011175 0.064527 0.4031 61 61 61
0.012992 0.064381 0.40218 62 62 62
0.014794 0.064212 0.40111 67 67 67
0.016572 0.063983 0.39967 71 71 71
0.018322 0.063704 0.39792 73 73 73
0.020088 0.063527 0.39679 76 76 76
0.021902 0.063518 0.39672 84 84 84
0.023608 0.06322 0.39484 93 93 93
0.025303 0.062938 0.39305 104 104 104
0.02716 0.063069 0.39385 94 94 94
0.029168 0.063513 0.39659 83 83 83
0.030896 0.063331 0.39543 80 80 80
0.032731 0.063376 0.39567 79 79 79
0.034608 0.063494 0.39637 86 86 86
0.036752 0.064065 0.3999 82 82 82
0.038706 0.064267 0.40112 70 70 70
0.040983 0.064961 0.4054 60 60 60
0.042833 0.064948 0.40527 61 61 61
0.04456 0.064759 0.40403 81 81 81
0.046439 0.064795 0.40421 88 88 88
0.048839 0.065529 0.40872 71 71 71
0 0 0 0 0 0
0.058071 0.072361 0.45117 47 47 47
0.061959 0.074549 0.46473 55 55 55
0 0 0 0 0 0
0.087394 0.09838 0.61302 28 28 28
0.090005 0.098159 0.61149 31 31 31
0.094003 0.099417 0.61918 26 26 26
0.097225 0.099805 0.62142 22 22 22
0.100618 0.100342 0.62459 21 21 21
0.103698 0.100545 0.62566 21 21 21
0.104534 0.098621 0.61349 23 23 23
0.10442 0.095924 0.59651 42 42 42
0.1066 0.095419 0.59315 49 49 49
0.107254 0.093607 0.58166 54 54 54
0.107884 0.091864 0.5706 91 91 91
0.110167 0.091578 0.56857 128 128 128
0.114659 0.093097 0.57774 70 70 70
0.118098 0.093713 0.58128 51 51 51
0.122347 0.09493 0.58853 44 44 44
0.126159 0.095762 0.59338 41 41 41
0.128922 0.09578 0.59315 37 37 37
0.130027 0.09459 0.58544 31 31 31
0.132521 0.094439 0.58414 26 26 26
0.135444 0.094594 0.58472 25 25 25
0.137754 0.094323 0.58264 22 22 22
0.139855 0.093922 0.57975 20 20 20
0.142416 0.093839 0.5788 23 23 23
0.145366 0.094011 0.57941 26 26 26
0.149022 0.094625 0.58271 35 35 35
0.155886 0.097218 0.59816 24 24 24
0.160418 0.09829 0.60422 64 64 64
0.163833 0.098654 0.60589 87 87 87
0.1667 0.09868 0.60546 95 95 95
0.169282 0.09854 0.60398 104 104 104
0.171485 0.098188 0.60118 105 105 105
0.173246 0.097597 0.59691 104 104 104
0.175575 0.09734 0.59466 109 109 109
0.177928 0.097105 0.59251 107 107 107
0.180095 0.096777 0.58978 107 107 107
0.182506 0.096588 0.58787 108 108 108
0.184813 0.09635 0.58564 110 110 110
0.187178 0.096149 0.58361 113 113 113
0.188845 0.095601 0.57945 115 115 115
0.190297 0.09496 0.57471 112 112 112
0.192363 0.094641 0.5719 95 95 95
0.194418 0.094324 0.56909 86 86 86
0.19612 0.093847 0.56529 82 82 82
0.19609 0.092566 0.55663 78 78 78
0.19754 0.092008 0.55232 76 76 76
0.199084 0.091508 0.54834 78 78 78
0.200196 0.090825 0.54324 85 85 85
0.202355 0.090628 0.54105 91 91 91
0.203917 0.090172 0.53729 92 92 92
0.206636 0.090233 0.53659 93 93 93
0.209547 0.090376 0.53636 97 97 97
0.213311 0.090878 0.53823 116 116 116
0.215768 0.090818 0.53676 159 159 159
0.218107 0.09071 0.53498 180 180 180
0.220678 0.0907 0.53378 175 175 175
0.222856 0.090531 0.53163 166 166 166
0.224478 0.090143 0.52819 157 157 157
0.226752 0.090022 0.52633 151 151 151
0.228243 0.089596 0.52269 151 151 151
0.230061 0.089307 0.51986 153 153 153
0.231734 0.088968 0.51677 150 150 150
0.233558 0.088695 0.51408 147 147 147
0.235378 0.088425 0.51144 142 142 142
0.237708 0.088351 0.50997 140 140 140
0.240233 0.08835 0.50895 126 126 126
0.241358 0.08784 0.50504 125 125 125
0.243402 0.087671 0.50315 131 131 131
0.245924 0.087676 0.50231 121 121 121
0.247466 0.087335 0.49955 114 114 114
0.249452 0.087156 0.49778 119 119 119
0.251176 0.08689 0.49558 110 110 110
0.25229 0.08642 0.49231 106 106 106
0.254088 0.086191 0.49048 98 98 98
0.255392 0.085801 0.48782 95 95 95
0.257029 0.085529 0.48592 88 88 88
0.258551 0.085224 0.48392 88 88 88
0.259113 0.084612 0.48026 86 86 86
0.261012 0.084443 0.47921 84 84 84
0.262257 0.084068 0.47707 80 80 80
-0.240339 0.075844 0.41958 4 4 4
0 0 0 0 0 0
-0.236505 0.075968 0.41959 4 4 4
-0.236031 0.076499 0.42229 6 6 6
-0.229202 0.074961 0.41365 6 6 6
-0.223887 0.073895 0.40768 5 5 5
-0.222667 0.074173 0.40921 6 6 6
-0.222264 0.074731 0.41235 7 7 7
-0.224259 0.076113 0.42013 6 6 6
-0.22177 0.075986 0.41964 7 7 7
-0.219708 0.076004 0.42002 7 7 7
-0.214463 0.07491 0.41433 7 7 7
-0.212879 0.075086 0.41573 7 7 7
-0.209187 0.074515 0.41305 8 8 8
-0.204946 0.073734 0.40927 7 7 7
-0.207964 0.075576 0.4201 9 9 9
-0.206121 0.075671 0.4213 9 9 9
-0.203906 0.07563 0.42178 10 10 10
-0.202034 0.075717 0.42303 9 9 9
-0.200268 0.075846 0.42455 11 11 11
-0.196514 0.075216 0.42185 11 11 11
-0.195825 0.075759 0.42576 11 11 11
-0.194252 0.075968 0.42782 12 12 12
-0.190204 0.075203 0.42441 13 13 13
-0.188809 0.075481 0.4269 12 12 12
-0.186169 0.075262 0.42659 11 11 11
-0.183662 0.075093 0.42656 12 12 12
-0.182965 0.075669 0.43077 12 12 12
-0.177029 0.074065 0.42256 13 13 13
-0.172392 0.072975 0.41724 13 13 13
-0.170312 0.072953 0.41801 13 13 13
-0.170125 0.073751 0.42348 12 12 12
-0.168516 0.073945 0.42548 13 13 13
-0.163358 0.072568 0.41841 12 12 12
-0.160649 0.072257 0.41746 12 12 12
-0.15838 0.072139 0.41761 13 13 13
-0.156058 0.071993 0.41757 13 13 13
-0.154827 0.072353 0.42045 13 13 13
-0.151031 0.071508 0.41631 13 13 13
-0.14783 0.070927 0.41366 12 12 12
-0.145844 0.07092 0.41434 13 13 13
-0.144251 0.071107 0.41614 11 11 11
-0.14117 0.070556 0.41359 14 14 14
-0.140306 0.071112 0.41752 13 13 13
-0.134647 0.06922 0.40703 14 14 14
-0.129265 0.067417 0.39702 14 14 14
-0.12659 0.066994 0.3951 15 15 15
-0.123912 0.066556 0.39306 16 16 16
-0.121167 0.066068 0.39071 18 18 18
0 0 0 0 0 0
-0.100195 0.056342 0.33404 70 70 70
-0.097508 0.055702 0.33064 99 99 99
-0.093744 0.054416 0.32339 129 129 129
-0.091908 0.054226 0.32261 152 152 152
-0.090019 0.053997 0.3216 164 164 164
-0.087631 0.053457 0.31871 186 186 186
-0.085406 0.052999 0.31629 192 192 192
-0.08387 0.052959 0.31635 192 192 192
-0.081959 0.052677 0.31495 212 212 212
-0.080387 0.052607 0.31481 231 231 231
0 0 0 0 0 0
-0.076994 0.05229 0.31342 247 247 247
0 0 0 0 0 0
0 0 0 0 0 0
0 0 0 0 0 0
0 0 0 0 0 0
0 0 0 0 0 0
0 0 0 0 0 0
0 0 0 0 0 0
0 0 0 0 0 0
0 0 0 0 0 0
0 0 0 0 0 0
0 0 0 0 0 0
0 0 0 0 0 0
0 0 0 0 0 0
-0.057277 0.052883 0.31949 215 215 215
-0.056202 0.053258 0.32188 206 206 206
-0.054796 0.053331 0.32243 194 194 194
-0.053689 0.053707 0.32482 190 190 190
-0.052376 0.053893 0.32604 178 178 178
-0.05107 0.054097 0.32738 164 164 164
-0.049958 0.054525 0.33006 153 153 153
-0.04867 0.054783 0.33171 144 144 144
-0.04801 0.055786 0.33786 127 127 127
-0.047221 0.056702 0.34349 124 124 124
-0.045564 0.056602 0.34296 126 126 126
-0.04495 0.057838 0.35051 116 116 116
-0.045226 0.060353 0.36582 93 93 93
-0.044196 0.06125 0.37133 69 69 69
-0.043087 0.062107 0.37659 26 26 26
-0.042016 0.063093 0.38262 10 10 10
-0.040866 0.064041 0.38842 8 8 8
0 0 0 0 0 0
-0.042473 0.072914 0.44235 12 12 12
-0.04124 0.074347 0.4511 12 12 12
-0.039314 0.074616 0.45278 11 11 11
-0.037789 0.075717 0.4595 12 12 12
-0.035818 0.076004 0.46128 12 12 12
-0.033805 0.076231 0.46269 11 11 11
-0.031756 0.076401 0.46376 11 11 11
-0.029798 0.076832 0.46641 11 11 11
-0.028014 0.077812 0.47239 11 11 11
-0.025996 0.078249 0.47507 10 10 10
-0.023852 0.078358 0.47575 10 10 10
-0.021856 0.07902 0.47979 10 10 10
-0.019778 0.0795 0.48272 10 10 10
-0.017741 0.080286 0.48751 10 10 10
-0.015534 0.080421 0.48834 10 10 10
-0.013297 0.080416 0.48833 10 10 10
-0.011008 0.080035 0.48602 11 11 11
-0.00876 0.079833 0.48481 11 11 11
-0.006434 0.078541 0.47697 14 14 14
-0.003885 0.071803 0.43605 29 29 29
-0.001812 0.068886 0.41834 42 42 42
0.000102 0.067694 0.4111 53 53 53
0.001981 0.067572 0.41036 44 44 44
0.003845 0.067299 0.4087 45 45 45
0.00569 0.066994 0.40685 44 44 44
0.007565 0.067093 0.40744 44 44 44
0.009279 0.066015 0.40089 58 58 58
0.011128 0.066095 0.40136 62 62 62
0.012945 0.065984 0.40068 65 65 65
0.014752 0.065858 0.3999 69 69 69
0.016545 0.065707 0.39897 72 72 72
0.018342 0.065598 0.39829 73 73 73
0.020156 0.065565 0.39807 80 80 80
0.02192 0.065388 0.39698 89 89 89
0.023637 0.065107 0.39526 101 101 101
0.025345 0.064847 0.39365 108 108 108
0.02724 0.065064 0.39494 91 91 91
0.029055 0.065076 0.39499 86 86 86
0.030899 0.065148 0.39539 80 80 80
0.032683 0.065093 0.39502 84 84 84
0.034601 0.065297 0.39622 88 88 88
0.036781 0.065949 0.40014 79 79 79
0.038825 0.066308 0.40227 71 71 71
0.040899 0.066683 0.4045 65 65 65
0.042717 0.066627 0.4041 70 70 70
0.044412 0.066391 0.40261 94 94 94
0.046355 0.066529 0.40339 94 94 94
0.049048 0.067692 0.41037 70 70 70
0 0 0 0 0 0
0.057763 0.074037 0.44867 45 45 45
0.06192 0.076633 0.46431 52 52 52
0 0 0 0 0 0
0.08762 0.101456 0.61444 38 38 38
0.09161 0.102767 0.62222 35 35 35
0.094454 0.102752 0.62197 32 32 32
0.09818 0.103668 0.62734 31 31 31
0.102054 0.104685 0.6333 28 28 28
0.105912 0.105629 0.63882 30 30 30
0.108827 0.105607 0.63847 30 30 30
0.110098 0.104033 0.62873 31 31 31
0.109968 0.10125 0.61168 34 34 34
0.109958 0.098713 0.59612 41 41 41
0.108939 0.095416 0.57596 78 78 78
0.109959 0.094019 0.56728 115 115 115
0.115554 0.096508 0.58202 56 56 56
0.119003 0.097133 0.5855 42 42 42
0.122424 0.097707 0.58866 39 39 39
0.125424 0.097928 0.58967 37 37 37
0.12775 0.097624 0.5875 34 34 34
0.129869 0.097178 0.58447 30 30 30
0.132423 0.097069 0.58344 26 26 26
0.134896 0.096906 0.58207 27 27 27
0.136995 0.096487 0.57915 24 24 24
0.139134 0.096111 0.57647 21 21 21
0.141006 0.095568 0.57278 20 20 20
0.143266 0.095303 0.57073 23 23 23
0.149166 0.097426 0.58296 28 28 28
0.153473 0.098451 0.58857 24 24 24
0.156209 0.09845 0.58803 36 36 36
0.162452 0.100621 0.60043 55 55 55
0.165196 0.100587 0.59963 77 77 77
0.168936 0.101152 0.60237 93 93 93
0.171354 0.100919 0.60035 99 99 99
0.173019 0.100258 0.59574 105 105 105
0.175307 0.099973 0.59336 105 105 105
0.177539 0.099665 0.59081 110 110 110
0.180018 0.099503 0.58912 109 109 109
0.182466 0.099329 0.58732 109 109 109
0.184935 0.099172 0.5856 109 109 109
0.187393 0.099013 0.58385 116 116 116
0.189645 0.098752 0.58147 122 122 122
0.191144 0.098112 0.57683 123 123 123
0.192158 0.097244 0.57085 123 123 123
0.194481 0.097054 0.56882 125 125 125
0.196869 0.096901 0.56699 120 120 120
0.199141 0.096695 0.56482 114 114 114
0.201234 0.09641 0.56218 107 107 107
0.202354 0.095672 0.55687 100 100 100
0.20433 0.095352 0.55399 92 92 92
0.205571 0.094702 0.54917 89 89 89
0.204927 0.093211 0.53948 85 85 85
0.207357 0.093138 0.53799 83 83 83
0.21078 0.093508 0.53903 93 93 93
0.21402 0.093788 0.53954 116 116 116
0.215847 0.09345 0.53647 155 155 155
0.218356 0.093411 0.53511 169 169 169
0.220828 0.093358 0.53366 166 166 166
0.223013 0.093186 0.53152 158 158 158
0.224698 0.092812 0.52824 159 159 159
0.226821 0.092625 0.52602 156 156 156
0.229205 0.092548 0.52444 152 152 152
0.230191 0.091913 0.51971 152 152 152
0.232067 0.091645 0.51708 146 146 146
0.233632 0.091261 0.51382 141 141 141
0.235583 0.091034 0.51148 141 141 141
0.237674 0.090865 0.50951 143 143 143
0.240955 0.091151 0.51011 125 125 125
0.242581 0.09081 0.50725 127 127 127
0.243435 0.090191 0.50289 129 129 129
0.245896 0.090174 0.50195 123 123 123
0.2473 0.089773 0.49894 117 117 117
0.248773 0.089405 0.49618 117 117 117
0.249673 0.088841 0.4924 114 114 114
0.251657 0.088669 0.49088 106 106 106
0.253531 0.088463 0.48925 100 100 100
0.254988 0.088116 0.48692 97 97 97
0.256978 0.087958 0.48572 91 91 91
0.258823 0.087755 0.48436 86 86 86
0.260015 0.087335 0.48189 84 84 84
0.261306 0.086957 0.47973 82 82 82
0.265465 0.087531 0.48292 74 74 74
-0.230529 0.074771 0.40258 4 4 4
-0.233276 0.076332 0.4106 4 4 4
-0.234949 0.077567 0.41692 4 4 4
-0.233091 0.077647 0.4171 5 5 5
-0.228345 0.076758 0.41214 6 6 6
-0.223479 0.075812 0.40696 6 6 6
-0.221917 0.075979 0.40783 6 6 6
-0.223159 0.077119 0.41398 6 6 6
-0.221343 0.077213 0.41461 7 7 7
-0.219658 0.077355 0.41556 7 7 7
-0.215501 0.076622 0.41188 7 7 7
-0.213239 0.076554 0.41184 8 8 8
-0.210716 0.07639 0.41135 8 8 8
-0.206207 0.075496 0.40699 8 8 8
-0.20412 0.07548 0.40742 9 9 9
-0.204994 0.076569 0.41388 9 9 9
-0.203289 0.076707 0.41526 9 9 9
-0.201543 0.076833 0.41663 10 10 10
-0.201174 0.077491 0.42093 10 10 10
-0.196692 0.076563 0.41666 11 11 11
-0.193498 0.076122 0.41506 11 11 11
-0.193008 0.076746 0.4193 12 12 12
-0.190729 0.076664 0.41971 12 12 12
-0.188068 0.076426 0.41929 12 12 12
-0.184855 0.075955 0.41759 12 12 12
-0.184166 0.076523 0.42162 12 12 12
-0.18373 0.07721 0.42633 12 12 12
-0.179244 0.076191 0.42162 13 13 13
-0.173046 0.074412 0.41267 13 13 13
-0.171925 0.074801 0.41572 13 13 13
-0.170045 0.074864 0.41697 13 13 13
-0.167431 0.074602 0.41639 13 13 13
-0.16558 0.074678 0.41768 13 13 13
-0.16197 0.073952 0.41448 12 12 12
-0.159438 0.073706 0.41394 13 13 13
-0.157804 0.073875 0.41571 13 13 13
-0.156651 0.074276 0.41878 12 12 12
-0.152206 0.073107 0.41297 13 13 13
-0.149973 0.072982 0.41303 13 13 13
-0.147455 0.072714 0.41226 13 13 13
-0.144898 0.07242 0.41131 13 13 13
-0.142113 0.072002 0.40963 13 13 13
-0.13962 0.071722 0.40871 13 13 13
-0.13683 0.071279 0.40684 13 13 13
-0.132857 0.070199 0.4013 14 14 14
-0.131006 0.070225 0.40206 14 14 14
-0.127385 0.069289 0.39728 14 14 14
-0.123876 0.068387 0.39266 16 16 16
-0.121138 0.067889 0.39033 18 18 18
-0.114389 0.065094 0.37475 29 29 29
-0.100837 0.05828 0.33594 69 69 69
-0.09722 0.057082 0.32944 102 102 102
-0.094345 0.056288 0.32524 130 130 130
-0.092687 0.056206 0.32514 149 149 149
-0.090108 0.055553 0.32171 163 163 163
-0.087953 0.055145 0.31968 173 173 173
-0.085596 0.054593 0.31679 197 197 197
-0.08359 0.05425 0.31511 205 205 205
-0.08214 0.054262 0.31547 211 211 211
-0.080361 0.054053 0.31453 233 233 233
0 0 0 0 0 0
0 0 0 0 0 0
0 0 0 0 0 0
0 0 0 0 0 0
0 0 0 0 0 0
0 0 0 0 0 0
0 0 0 0 0 0
0 0 0 0 0 0
0 0 0 0 0 0
0 0 0 0 0 0
0 0 0 0 0 0
0 0 0 0 0 0
0 0 0 0 0 0
0 0 0 0 0 0
-0.058448 0.054076 0.31762 244 244 244
-0.057155 0.054238 0.3187 212 212 212
-0.056318 0.054852 0.32243 204 204 204
-0.054992 0.05501 0.32348 200 200 200
-0.053891 0.055409 0.32593 182 182 182
-0.052386 0.055403 0.326 176 176 176
-0.051211 0.055755 0.32818 166 166 166
-0.049965 0.05605 0.33001 152 152 152
-0.04892 0.056595 0.33331 143 143 143
-0.047934 0.057247 0.33723 143 143 143
-0.046756 0.057705 0.34001 137 137 137
-0.045463 0.058047 0.3421 129 129 129
-0.045463 0.060124 0.35442 113 113 113
-0.045053 0.061793 0.36433 100 100 100
-0.044106 0.062825 0.37048 68 68 68
-0.043259 0.06409 0.378 26 26 26
-0.042297 0.065282 0.38509 10 10 10
-0.041266 0.066466 0.39214 8 8 8
-0.042958 0.072344 0.42688 9 9 9
-0.041804 0.073762 0.4353 12 12 12
-0.040667 0.075352 0.44474 12 12 12
-0.039299 0.076662 0.45252 12 12 12
-0.037379 0.07698 0.45444 12 12 12
-0.035612 0.077668 0.45854 11 11 11
-0.033539 0.077734 0.45897 11 11 11
-0.03164 0.07824 0.462 11 11 11
-0.029694 0.078692 0.46469 11 11 11
-0.027707 0.079099 0.46713 10 10 10
-0.025747 0.079658 0.47046 10 10 10
-0.02367 0.079922 0.47204 10 10 10
-0.021788 0.080963 0.47821 11 11 11
-0.019757 0.081621 0.48212 11 11 11
-0.017507 0.08143 0.48101 11 11 11
-0.015292 0.081366 0.48065 10 10 10
-0.013097 0.08141 0.48091 10 10 10
-0.010922 0.08162 0.48217 11 11 11
-0.008658 0.081098 0.47909 12 12 12
-0.006401 0.080303 0.4744 14 14 14
-0.003852 0.073173 0.43228 37 37 37
-0.001805 0.070529 0.41667 55 55 55
0.000102 0.069787 0.41229 56 56 56
0.001975 0.069232 0.40901 47 47 47
0.003832 0.068946 0.40731 47 47 47
0.005698 0.06895 0.40733 45 45 45
0.00752 0.06855 0.40496 49 49 49
0.009293 0.06795 0.40141 58 58 58
0.011082 0.067653 0.39965 63 63 63
0.012907 0.06762 0.39944 64 64 64
0.014738 0.067627 0.39947 66 66 66
0.016554 0.067571 0.39912 73 73 73
0.018365 0.067506 0.39873 77 77 77
0.020148 0.067361 0.39785 85 85 85
0.021888 0.067109 0.39634 95 95 95
0.023614 0.066854 0.39481 112 112 112
0.025279 0.066476 0.39256 131 131 131
0.027121 0.066581 0.39315 114 114 114
0.02901 0.066783 0.39431 94 94 94
0.030813 0.066774 0.39422 84 84 84
0.032662 0.066861 0.3947 88 88 88
0.034473 0.066865 0.39468 105 105 105
0.036719 0.06767 0.39939 79 79 79
0.038665 0.067872 0.40053 75 75 75
0.040685 0.068178 0.40229 71 71 71
0.042411 0.067989 0.40111 93 93 93
0.04423 0.067958 0.40087 97 97 97
0.046173 0.068111 0.40171 100 100 100
0.048938 0.069419 0.40936 68 68 68
0 0 0 0 0 0
0 0 0 0 0 0
0 0 0 0 0 0
0 0 0 0 0 0
0.087826 0.104522 0.6157 36 36 36
0.091469 0.105462 0.62108 35 35 35
0.094491 0.10565 0.62202 34 34 34
0.098903 0.107336 0.63176 35 35 35
0.103306 0.108916 0.64087 36 36 36
0.105999 0.108656 0.63913 39 39 39
0.108585 0.108303 0.63683 39 39 39
0.1116 0.108385 0.63708 39 39 39
0.112634 0.106589 0.62628 40 40 40
0.112415 0.103725 0.6092 47 47 47
0.108558 0.097726 0.57373 88 88 88
0.108534 0.095382 0.55971 142 142 142
0.118424 0.101656 0.59624 53 53 53
0.121795 0.102176 0.59899 36 36 36
0.124672 0.102269 0.59921 31 31 31
0.128019 0.102734 0.6016 25 25 25
0.131227 0.10307 0.60321 22 22 22
0.131608 0.101218 0.59201 20 20 20
0.133346 0.100464 0.58722 18 18 18
0.135433 0.099998 0.5841 17 17 17
0.137178 0.099303 0.57962 16 16 16
0.138474 0.098315 0.57343 14 14 14
0.140891 0.098146 0.572 15 15 15
0.143232 0.097931 0.57028 14 14 14
0.147987 0.099344 0.57802 16 16 16
0.151314 0.099765 0.57995 21 21 21
0.153921 0.099705 0.57907 24 24 24
0.156122 0.099389 0.57667 28 28 28
0.161836 0.101282 0.58707 32 32 32
0.164307 0.101116 0.58549 39 39 39
0.166987 0.101082 0.58466 51 51 51
0.170389 0.101479 0.58629 65 65 65
0.173196 0.101515 0.5858 86 86 86
0.175871 0.101474 0.58485 98 98 98
0.179865 0.102183 0.58819 106 106 106
0.182429 0.10207 0.58677 108 108 108
0.184543 0.101714 0.58392 111 111 111
0.187029 0.101569 0.58227 116 116 116
0.187999 0.100618 0.57597 120 120 120
0.189812 0.100138 0.57236 121 121 121
0.192043 0.099889 0.57004 124 124 124
0.194598 0.099813 0.56869 131 131 131
0.196883 0.099603 0.56655 129 129 129
0.19915 0.099389 0.56437 132 132 132
0.200716 0.098836 0.56024 130 130 130
0.202608 0.098456 0.55708 133 133 133
0.205111 0.098379 0.55561 134 134 134
0.206216 0.097642 0.5504 126 126 126
0.208423 0.097438 0.54819 120 120 120
0.210837 0.097335 0.54652 113 113 113
0.212414 0.096853 0.54271 123 123 123
0.214918 0.096801 0.5413 139 139 139
0.216334 0.096266 0.53718 158 158 158
0.218579 0.096107 0.53516 157 157 157
0.220979 0.09602 0.53353 158 158 158
0.223253 0.095881 0.53161 158 158 158
0.224892 0.095475 0.52821 158 158 158
0.227003 0.095277 0.52597 156 156 156
0.228936 0.095009 0.52335 152 152 152
0.231007 0.094805 0.5211 148 148 148
0.233094 0.09461 0.51893 141 141 141
0.233847 0.093885 0.51387 137 137 137
0.235741 0.093628 0.51142 141 141 141
0.23706 0.093151 0.5078 138 138 138
0.241028 0.093714 0.50989 127 127 127
0.242371 0.093255 0.50646 131 131 131
0.243203 0.092611 0.50209 130 130 130
0.244856 0.09229 0.49953 125 125 125
0.246522 0.091979 0.4971 121 121 121
0.248222 0.091688 0.49483 116 116 116
0.249817 0.091364 0.49247 112 112 112
0.251579 0.091107 0.49054 110 110 110
0.252887 0.090692 0.48785 103 103 103
0.254854 0.090519 0.48654 97 97 97
0.257493 0.090586 0.48661 93 93 93
0.259378 0.090389 0.48533 89 89 89
0.260443 0.089912 0.48265 83 83 83
0.261415 0.089412 0.47993 81 81 81
0.263913 0.089439 0.48012 73 73 73
-0.231811 0.077222 0.40496 4 4 4
-0.230447 0.077447 0.40574 5 5 5
-0.228697 0.077545 0.40592 4 4 4
-0.228707 0.078248 0.40933 5 5 5
-0.226271 0.078118 0.40845 5 5 5
-0.224429 0.078194 0.40872 6 6 6
-0.222244 0.07815 0.40843 6 6 6
-0.221884 0.078753 0.4116 6 6 6
-0.218222 0.078184 0.40871 7 7 7
-0.21628 0.078227 0.40909 7 7 7
-0.214993 0.078509 0.4108 7 7 7
-0.212048 0.078186 0.40941 7 7 7
-0.209004 0.077819 0.40786 8 8 8
-0.206178 0.077528 0.40676 9 9 9
-0.203349 0.077229 0.40568 8 8 8
-0.200604 0.076956 0.40479 9 9 9
-0.19862 0.076973 0.40548 9 9 9
-0.198811 0.077842 0.41071 9 9 9
-0.197714 0.07822 0.41341 10 10 10
-0.193258 0.077262 0.40908 11 11 11
-0.189334 0.076499 0.40581 11 11 11
-0.190188 0.077671 0.41283 12 12 12
-0.189209 0.078111 0.41602 12 12 12
-0.18515 0.077276 0.41242 12 12 12
-0.182317 0.07694 0.41149 13 13 13
-0.181176 0.077318 0.4144 13 13 13
-0.180026 0.0777 0.41735 14 14 14
-0.174642 0.076244 0.41041 14 14 14
-0.173425 0.076593 0.41319 14 14 14
-0.171284 0.076538 0.41378 14 14 14
-0.168799 0.076326 0.41352 14 14 14
-0.165704 0.07583 0.4117 13 13 13
-0.161447 0.074783 0.40687 13 13 13
-0.160221 0.075133 0.40961 14 14 14
-0.158658 0.07533 0.41153 13 13 13
-0.156808 0.075395 0.4127 14 14 14
-0.153908 0.07495 0.41107 14 14 14
-0.151368 0.074671 0.41032 14 14 14
-0.149099 0.07452 0.41025 14 14 14
-0.147188 0.074547 0.41114 13 13 13
-0.144359 0.074103 0.40942 14 14 14
-0.141426 0.073592 0.4073 14 14 14
-0.138719 0.073187 0.40573 14 14 14
-0.135999 0.072763 0.40403 14 14 14
-0.133232 0.072302 0.40211 15 15 15
-0.131262 0.072266 0.40252 15 15 15
-0.127533 0.071247 0.39742 15 15 15
-0.124435 0.070554 0.39412 16 16 16
-0.119176 0.068597 0.38372 18 18 18
0 0 0 0 0 0
-0.099972 0.059343 0.33282 66 66 66
-0.097014 0.058502 0.32851 104 104 104
-0.095303 0.058398 0.32831 123 123 123
-0.091837 0.057198 0.32193 159 159 159
-0.09052 0.057318 0.32296 165 165 165
-0.087539 0.056371 0.31796 173 173 173
-0.085642 0.056101 0.31677 195 195 195
-0.083774 0.055841 0.3156 212 212 212
-0.081921 0.055582 0.31443 214 214 214
-0.080585 0.05567 0.31522 221 221 221
0 0 0 0 0 0
0 0 0 0 0 0
0 0 0 0 0 0
0 0 0 0 0 0
0 0 0 0 0 0
0 0 0 0 0 0
0 0 0 0 0 0
0 0 0 0 0 0
0 0 0 0 0 0
0 0 0 0 0 0
0 0 0 0 0 0
0 0 0 0 0 0
0 0 0 0 0 0
0 0 0 0 0 0
0 0 0 0 0 0
-0.057656 0.056193 0.32137 219 219 219
-0.056261 0.056279 0.32199 204 204 204
-0.055393 0.05691 0.32572 199 199 199
-0.053662 0.056666 0.32444 187 187 187
-0.052588 0.057121 0.32715 175 175 175
-0.051204 0.057256 0.32803 166 166 166
-0.05002 0.05763 0.33026 158 158 158
-0.048935 0.058144 0.3333 149 149 149
-0.047574 0.058354 0.3346 142 142 142
-0.046589 0.059054 0.33869 136 136 136
-0.045684 0.059908 0.34367 132 132 132
-0.045535 0.061849 0.35489 112 112 112
-0.045258 0.063754 0.36589 96 96 96
-0.044197 0.06466 0.37116 66 66 66
-0.043887 0.06678 0.38339 24 24 24
-0.042294 0.067043 0.38497 9 9 9
-0.04118 0.068122 0.39123 8 8 8
-0.042453 0.073428 0.42176 11 11 11
-0.041131 0.074537 0.42819 13 13 13
-0.039819 0.075779 0.43538 12 12 12
-0.038797 0.077731 0.44664 12 12 12
-0.037134 0.078545 0.45137 12 12 12
-0.035062 0.078538 0.45137 11 11 11
-0.033558 0.079882 0.45914 11 11 11
-0.03152 0.080053 0.46016 12 12 12
-0.029628 0.080644 0.46359 11 11 11
-0.02751 0.080662 0.46372 10 10 10
-0.025455 0.080885 0.46503 11 11 11
-0.023656 0.082036 0.47168 11 11 11
-0.021684 0.082757 0.47585 11 11 11
-0.019617 0.083236 0.47862 11 11 11
-0.01733 0.08279 0.47608 12 12 12
-0.015052 0.082256 0.47302 11 11 11
-0.012961 0.082744 0.47584 11 11 11
-0.010861 0.08336 0.4794 11 11 11
-0.008583 0.082564 0.47483 12 12 12
-0.006289 0.081035 0.46604 16 16 16
-0.003811 0.074339 0.42754 39 39 39
-0.001802 0.072313 0.41589 61 61 61
0.000102 0.07159 0.41173 65 65 65
0.001974 0.071068 0.40873 64 64 64
0.003823 0.070647 0.4063 52 52 52
0.005677 0.070552 0.40575 46 46 46
0.00753 0.070503 0.40547 49 49 49
0.009307 0.069896 0.40197 58 58 58
0.011093 0.069551 0.39997 66 66 66
0.012903 0.069432 0.39927 68 68 68
0.014743 0.069481 0.39954 70 70 70
0.016577 0.069497 0.39962 75 75 75
0.018445 0.069637 0.40041 83 83 83
0.020052 0.068855 0.39589 104 104 104
0.021784 0.068597 0.39438 125 125 125
0.023446 0.068174 0.39193 140 140 140
0.025214 0.068099 0.39147 142 142 142
0.027058 0.068224 0.39216 134 134 134
0.028849 0.068208 0.39204 128 128 128
0.030686 0.068298 0.39252 113 113 113
0.032502 0.068335 0.39269 127 127 127
0.034418 0.068565 0.39397 125 125 125
0.036417 0.068928 0.39601 108 108 108
0.038436 0.069294 0.39806 92 92 92
0.040246 0.069268 0.39786 97 97 97
0.042182 0.069451 0.39886 100 100 100
0.044203 0.069752 0.40052 97 97 97
0.046135 0.069896 0.40128 98 98 98
0.049453 0.072048 0.41356 60 60 60
0.052957 0.0743 0.42641 50 50 50
0.057013 0.07714 0.44261 53 53 53
0 0 0 0 0 0
0 0 0 0 0 0
0.086709 0.105986 0.60769 38 38 38
0.090915 0.10766 0.61713 39 39 39
0.094309 0.1083 0.62062 35 35 35
0.09919 0.110561 0.63339 35 35 35
0.102643 0.111146 0.63654 37 37 37
0.105841 0.111429 0.63795 40 40 40
0.108107 0.110744 0.6338 40 40 40
0.109687 0.10941 0.62593 41 41 41
0.110509 0.107406 0.61422 40 40 40
0.110109 0.104346 0.59647 41 41 41
0.107598 0.099483 0.56842 63 63 63
0.109996 0.099282 0.567 69 69 69
0.117669 0.103741 0.59218 45 45 45
0.120956 0.104218 0.5946 33 33 33
0.124871 0.105203 0.59989 27 27 27
0.128721 0.106092 0.60461 24 24 24
0.130535 0.105301 0.59974 21 21 21
0.132072 0.104323 0.5938 19 19 19
0.134312 0.10393 0.59117 17 17 17
0.137105 0.103972 0.591 14 14 14
0.139257 0.103535 0.58809 12 12 12
0.138691 0.101134 0.57401 11 11 11
0.139442 0.099764 0.56579 10 10 10
0.143439 0.100726 0.57077 13 13 13
0.146783 0.101202 0.57297 17 17 17
0.148839 0.100788 0.57012 21 21 21
0.151096 0.100523 0.56808 23 23 23
0.153712 0.100502 0.56741 24 24 24
0.156359 0.100502 0.56683 26 26 26
0.159128 0.100579 0.56666 27 27 27
0.164235 0.102106 0.57463 28 28 28
0.167054 0.102185 0.57441 31 31 31
0.167745 0.100981 0.56696 35 35 35
0.170975 0.101318 0.56815 39 39 39
0.177162 0.103371 0.57892 51 51 51
0.178939 0.102827 0.57511 68 68 68
0.181382 0.102676 0.57347 86 86 86
0.18502 0.103197 0.57555 101 101 101
0.187015 0.102799 0.57249 113 113 113
0.189663 0.102767 0.57144 117 117 117
0.192133 0.10264 0.56983 120 120 120
0.194287 0.10235 0.5673 126 126 126
0.196956 0.102336 0.56627 131 131 131
0.198794 0.101896 0.56287 131 131 131
0.20101 0.101659 0.56056 132 132 132
0.203259 0.101445 0.55836 134 134 134
0.205249 0.101108 0.55548 139 139 139
0.206435 0.10039 0.55048 142 142 142
0.208536 0.100129 0.54797 139 139 139
0.21081 0.099956 0.54594 139 139 139
0.213079 0.099786 0.5439 142 142 142
0.215105 0.099507 0.54126 147 147 147
0.217543 0.099423 0.53967 152 152 152
0.219228 0.099001 0.53624 152 152 152
0.221293 0.098759 0.53378 156 156 156
0.223149 0.09843 0.53086 152 152 152
0.224806 0.098022 0.52752 152 152 152
0.226721 0.097734 0.52483 149 149 149
0.228344 0.097328 0.52153 150 150 150
0.230713 0.097246 0.51998 151 151 151
0.231122 0.096348 0.51409 141 141 141
0.233614 0.096329 0.51293 132 132 132
0.236176 0.096339 0.51195 136 136 136
0.236801 0.095567 0.50686 134 134 134
0.239293 0.095557 0.50585 125 125 125
0.241878 0.095583 0.50508 126 126 126
0.243548 0.095252 0.50248 125 125 125
0.245288 0.094954 0.50011 123 123 123
0.246435 0.094435 0.49665 119 119 119
0.248742 0.094366 0.49563 118 118 118
0.250407 0.094058 0.49342 112 112 112
0.251937 0.093705 0.49106 111 111 111
0.25342 0.093342 0.48873 99 99 99
0.255177 0.093086 0.48704 96 96 96
0.257414 0.093008 0.48637 93 93 93
0.259681 0.092943 0.48585 86 86 86
0.259481 0.092004 0.48085 85 85 85
0.261268 0.09178 0.47967 82 82 82
0.262792 0.091469 0.47812 79 79 79
-0.229535 0.078478 0.40113 4 4 4
-0.226257 0.078042 0.39849 5 5 5
-0.221559 0.077104 0.39335 5 5 5
-0.22108 0.077631 0.39576 6 6 6
-0.224609 0.079587 0.40551 5 5 5
-0.22061 0.078888 0.4018 6 6 6
-0.218899 0.079001 0.40229 6 6 6
-0.215945 0.078664 0.40056 6 6 6
-0.21505 0.079077 0.40273 7 7 7
-0.214518 0.079634 0.4057 8 8 8
-0.212362 0.079592 0.40568 7 7 7
-0.210139 0.079523 0.40561 7 7 7
-0.207654 0.079354 0.40508 8 8 8
-0.204889 0.079073 0.40405 9 9 9
-0.201218 0.078433 0.40124 9 9 9
-0.198582 0.078188 0.4005 9 9 9
-0.196548 0.078177 0.40101 10 10 10
-0.195626 0.078613 0.40387 10 10 10
-0.192897 0.078324 0.40305 10 10 10
-0.188467 0.077332 0.39865 12 12 12
-0.188717 0.078258 0.40417 12 12 12
-0.18596 0.077945 0.40333 12 12 12
-0.186964 0.079218 0.41073 12 12 12
-0.182416 0.078141 0.40598 13 13 13
-0.180427 0.078148 0.40686 14 14 14
-0.179026 0.078413 0.4091 13 13 13
-0.176563 0.078213 0.40894 13 13 13
-0.174736 0.078294 0.41024 13 13 13
-0.172288 0.078096 0.41008 14 14 14
-0.169627 0.077795 0.40938 13 13 13
-0.165869 0.076977 0.40594 15 15 15
-0.163263 0.076682 0.40524 13 13 13
-0.160714 0.076405 0.40463 14 14 14
-0.158342 0.076208 0.40442 15 15 15
-0.158592 0.077283 0.41096 15 15 15
-0.156003 0.076984 0.41019 15 15 15
-0.152963 0.076452 0.40815 14 14 14
-0.150076 0.075984 0.40643 15 15 15
-0.148053 0.075947 0.40699 14 14 14
-0.14604 0.075914 0.40756 14 14 14
-0.143968 0.075849 0.40794 14 14 14
-0.141207 0.075414 0.4063 14 14 14
-0.138143 0.074803 0.40369 16 16 16
-0.13569 0.07451 0.40277 16 16 16
-0.133665 0.074448 0.40307 16 16 16
-0.129417 0.073127 0.39652 15 15 15
-0.127834 0.073296 0.39803 16 16 16
-0.124731 0.072585 0.39474 17 17 17
-0.120884 0.071413 0.3889 19 19 19
0 0 0 0 0 0
-0.100978 0.061519 0.33591 64 64 64
-0.097141 0.060122 0.32869 106 106 106
-0.095264 0.059912 0.32794 124 124 124
-0.092169 0.058917 0.32287 157 157 157
-0.090447 0.05878 0.32248 168 168 168
-0.08821 0.058299 0.32018 175 175 175
-0.085881 0.057739 0.31744 198 198 198
-0.084158 0.057575 0.31684 209 209 209
-0.08252 0.057463 0.31653 213 213 213
-0.080789 0.057282 0.31582 228 228 228
0 0 0 0 0 0
0 0 0 0 0 0
0 0 0 0 0 0
0 0 0 0 0 0
0 0 0 0 0 0
0 0 0 0 0 0
0 0 0 0 0 0
0 0 0 0 0 0
0 0 0 0 0 0
0 0 0 0 0 0
0 0 0 0 0 0
0 0 0 0 0 0
0 0 0 0 0 0
-0.060211 0.057288 0.31881 239 239 239
-0.058918 0.057461 0.31991 235 235 235
-0.057524 0.057542 0.3205 228 228 228
-0.056283 0.057785 0.32198 211 211 211
-0.054848 0.057835 0.32239 195 195 195
-0.053501 0.057984 0.32334 188 188 188
-0.052597 0.058636 0.32708 170 170 170
-0.051357 0.058941 0.32889 168 168 168
-0.050015 0.059142 0.33012 150 150 150
-0.04892 0.059658 0.33309 142 142 142
-0.047656 0.059994 0.33506 145 145 145
-0.046354 0.060305 0.33688 133 133 133
-0.046362 0.062398 0.34866 125 125 125
-0.045236 0.063061 0.35245 118 118 118
-0.045206 0.065359 0.36537 94 94 94
-0.044232 0.066416 0.37135 65 65 65
-0.043561 0.068029 0.38044 23 23 23
-0.042104 0.0685 0.38314 10 10 10
-0.041074 0.069737 0.39012 8 8 8
-0.042552 0.075539 0.42264 11 11 11
-0.040854 0.075985 0.4252 14 14 14
-0.039337 0.076832 0.42999 12 12 12
-0.038405 0.078972 0.44202 12 12 12
-0.036644 0.07955 0.44531 12 12 12
-0.034704 0.079785 0.44667 12 12 12
-0.032828 0.080203 0.44905 12 12 12
-0.031349 0.081716 0.45756 11 11 11
-0.029058 0.081173 0.45456 11 11 11
-0.027322 0.082222 0.46047 11 11 11
-0.025221 0.08225 0.46066 10 10 10
-0.023194 0.082553 0.46238 11 11 11
-0.021428 0.083934 0.47014 11 11 11
-0.019228 0.083735 0.46905 11 11 11
-0.017067 0.083679 0.46875 11 11 11
-0.014935 0.083769 0.46928 11 11 11
-0.012789 0.083796 0.46944 12 12 12
-0.010638 0.083796 0.46945 11 11 11
-0.008433 0.083264 0.46648 12 12 12
0 0 0 0 0 0
-0.003752 0.075115 0.42084 43 43 43
-0.001799 0.074105 0.41518 66 66 66
0.000102 0.073431 0.41141 75 75 75
0.001972 0.072861 0.40821 91 91 91
0.00382 0.072436 0.40583 80 80 80
0.005664 0.072242 0.40474 54 54 54
0.007518 0.072239 0.40471 55 55 55
0.009349 0.072062 0.40372 58 58 58
0.011106 0.071464 0.40035 61 61 61
0.012896 0.071218 0.39896 69 69 69
0.0147 0.071103 0.3983 76 76 76
0.016609 0.071465 0.40032 85 85 85
0.01825 0.070714 0.39609 114 114 114
0.020003 0.070496 0.39485 128 128 128
0.021729 0.070227 0.39331 140 140 140
0.023446 0.069969 0.39185 147 147 147
0.025206 0.06987 0.39126 150 150 150
0.027026 0.069939 0.39162 142 142 142
0.028851 0.070012 0.39199 144 144 144
0.030652 0.070019 0.39199 132 132 132
0.032541 0.070217 0.39306 125 125 125
0.034393 0.070319 0.39358 131 131 131
0.03643 0.070769 0.39606 127 127 127
0.038315 0.070897 0.39672 114 114 114
0.040194 0.071001 0.39725 106 106 106
0.042073 0.071097 0.39772 103 103 103
0.044283 0.071721 0.40115 97 97 97
0.046344 0.072062 0.40299 94 94 94
0.049313 0.073736 0.41227 71 71 71
0.051883 0.074711 0.41764 72 72 72
0.054811 0.076114 0.42539 76 76 76
0 0 0 0 0 0
0 0 0 0 0 0
0 0 0 0 0 0
0.08937 0.108618 0.60643 31 31 31
0.093122 0.109754 0.6126 32 32 32
0 0 0 0 0 0
0.100244 0.111407 0.62143 32 32 32
0.103115 0.11142 0.62129 34 34 34
0.106368 0.111833 0.62336 38 38 38
0.109203 0.111796 0.62292 41 41 41
0.110256 0.109985 0.61257 43 43 43
0.109872 0.106865 0.59494 46 46 46
0.107859 0.102352 0.56955 72 72 72
0.109967 0.101871 0.5666 88 88 88
0.117327 0.106164 0.59019 46 46 46
0.120552 0.106607 0.59233 34 34 34
0.123565 0.106846 0.59333 29 29 29
0.128399 0.108615 0.6028 26 26 26
0.131292 0.108702 0.60291 23 23 23
0.131478 0.10659 0.59082 18 18 18
0.134484 0.106805 0.59161 17 17 17
0.13733 0.106886 0.59164 17 17 17
0.136668 0.104287 0.57683 14 14 14
0.137225 0.102701 0.56762 12 12 12
0.139166 0.10219 0.56434 14 14 14
0.145099 0.104576 0.57703 16 16 16
0.144893 0.102531 0.56525 18 18 18
0.146282 0.101667 0.55997 20 20 20
0.148919 0.101685 0.55953 21 21 21
0.1522 0.102135 0.56145 23 23 23
0.155395 0.102513 0.56295 24 24 24
0.158216 0.102637 0.56302 25 25 25
0.160538 0.102437 0.56129 26 26 26
0.162934 0.102291 0.55983 26 26 26
0.166076 0.10261 0.5609 27 27 27
0.168351 0.102391 0.55901 28 28 28
0.17062 0.102177 0.55711 29 29 29
0.174295 0.102797 0.55974 31 31 31
0.17663 0.102621 0.55799 34 34 34
0.18064 0.103408 0.56146 41 41 41
0.18491 0.10432 0.56557 53 53 53
0.187723 0.104395 0.56511 71 71 71
0.190258 0.104316 0.56378 92 92 92
0.193219 0.104469 0.56368 111 111 111
0.196181 0.104618 0.56354 119 119 119
0.198891 0.104631 0.56263 131 131 131
0.200596 0.104122 0.55889 134 134 134
0.203005 0.103987 0.55714 133 133 133
0.205191 0.103743 0.5548 139 139 139
0.206898 0.103266 0.55118 145 145 145
0.208597 0.102796 0.5476 145 145 145
0.210528 0.102453 0.54468 147 147 147
0.212872 0.102315 0.54284 139 139 139
0.214678 0.101926 0.53966 144 144 144
0.217143 0.101855 0.53815 148 148 148
0.219349 0.101665 0.53601 147 147 147
0.221593 0.101498 0.53399 148 148 148
0.222602 0.100775 0.52905 149 149 149
0.224741 0.100575 0.52686 147 147 147
0.227031 0.100446 0.52506 147 147 147
0.228289 0.099868 0.52092 145 145 145
0.229865 0.099441 0.5176 141 141 141
0.231078 0.098868 0.51355 134 134 134
0.233357 0.098758 0.51193 132 132 132
0.235703 0.098679 0.51051 130 130 130
0.237006 0.09817 0.5069 127 127 127
0.239379 0.098109 0.50566 114 114 114
0.241869 0.098098 0.50472 121 121 121
0.243483 0.097735 0.50202 119 119 119
0.245569 0.097567 0.50039 117 117 117
0.247088 0.097179 0.4977 110 110 110
0.248889 0.09691 0.49569 111 111 111
0.250578 0.096602 0.49356 108 108 108
0.251549 0.096026 0.49014 106 106 106
0.253461 0.095817 0.48867 102 102 102
0.255522 0.095668 0.48759 99 99 99
0.256632 0.095169 0.48482 93 93 93
0.257606 0.094629 0.48192 91 91 91
0.259134 0.094301 0.48019 85 85 85
0.260644 0.093973 0.47854 82 82 82
0.260087 0.092912 0.47324 77 77 77
-0.232516 0.081538 0.4065 5 5 5
-0.224887 0.079561 0.39621 5 5 5
-0.221661 0.07912 0.39365 6 6 6
-0.218922 0.078847 0.39199 5 5 5
-0.220405 0.080103 0.39799 6 6 6
-0.216942 0.079568 0.39516 6 6 6
-0.213886 0.079174 0.3931 6 6 6
-0.213894 0.079917 0.39676 6 6 6
-0.211892 0.079916 0.39679 7 7 7
-0.20983 0.079893 0.39677 7 7 7
-0.208658 0.08021 0.39852 7 7 7
-0.207608 0.080582 0.40061 8 8 8
-0.204689 0.080229 0.39916 8 8 8
-0.203122 0.080403 0.4004 9 9 9
-0.198969 0.079547 0.39656 9 9 9
-0.195667 0.079017 0.39441 10 10 10
-0.194723 0.079439 0.39705 10 10 10
-0.194005 0.079963 0.40027 11 11 11
-0.189803 0.079046 0.39631 11 11 11
-0.187067 0.078727 0.39539 11 11 11
-0.186091 0.07915 0.39823 12 12 12
-0.186812 0.080312 0.40484 12 12 12
-0.183159 0.079598 0.40203 13 13 13
-0.182509 0.080187 0.40582 14 14 14
-0.178145 0.07914 0.40135 13 13 13
-0.175756 0.078957 0.40126 13 13 13
-0.174812 0.079425 0.40449 13 13 13
-0.173043 0.079526 0.40587 15 15 15
-0.171339 0.079659 0.40742 14 14 14
-0.167758 0.078912 0.40447 15 15 15
-0.164878 0.078482 0.40312 15 15 15
-0.161932 0.078009 0.40154 15 15 15
-0.160188 0.07811 0.4029 15 15 15
-0.159331 0.078652 0.40654 16 16 16
-0.157793 0.078867 0.40848 15 15 15
-0.154991 0.078448 0.40712 15 15 15
-0.151238 0.077531 0.40315 14 14 14
-0.149277 0.07752 0.40387 15 15 15
-0.145328 0.076463 0.39912 15 15 15
-0.143339 0.076423 0.39964 14 14 14
-0.143612 0.077604 0.40655 16 16 16
-0.139828 0.076595 0.40196 16 16 16
-0.137214 0.076207 0.40061 16 16 16
-0.135023 0.076047 0.40042 16 16 16
-0.131577 0.075166 0.39642 15 15 15
-0.129687 0.075161 0.39701 16 16 16
-0.127031 0.074705 0.39519 17 17 17
-0.124524 0.074325 0.39375 17 17 17
-0.118517 0.071812 0.38098 18 18 18
-0.113946 0.070105 0.37243 28 28 28
-0.101618 0.063499 0.33777 64 64 64
-0.097411 0.061836 0.32935 104 104 104
-0.094956 0.061251 0.32663 126 126 126
-0.092539 0.060672 0.32392 153 153 153
-0.090408 0.060263 0.3221 172 172 172
-0.088048 0.059686 0.31937 174 174 174
-0.085864 0.05921 0.31715 199 199 199
-0.084227 0.059101 0.31689 205 205 205
-0.082483 0.058912 0.31618 215 215 215
-0.081357 0.059165 0.31783 229 229 229
0 0 0 0 0 0
0 0 0 0 0 0
0 0 0 0 0 0
0 0 0 0 0 0
0 0 0 0 0 0
0 0 0 0 0 0
0 0 0 0 0 0
0 0 0 0 0 0
0 0 0 0 0 0
0 0 0 0 0 0
0 0 0 0 0 0
0 0 0 0 0 0
0 0 0 0 0 0
0 0 0 0 0 0
-0.058766 0.058784 0.31894 242 242 242
-0.057571 0.059067 0.32062 216 216 216
-0.056155 0.059133 0.32111 212 212 212
-0.054981 0.059463 0.32304 204 204 204
-0.053769 0.059771 0.32483 184 184 184
-0.052598 0.060142 0.32697 171 171 171
-0.051217 0.060288 0.32787 166 166 166
-0.050031 0.06068 0.3301 158 158 158
-0.048654 0.060857 0.33116 151 151 151
-0.04749 0.06132 0.33378 145 145 145
-0.046115 0.061534 0.33503 141 141 141
-0.046216 0.063799 0.34746 126 126 126
-0.045659 0.065285 0.35563 117 117 117
-0.045285 0.067153 0.36589 94 94 94
-0.044119 0.067946 0.37028 64 64 64
-0.043665 0.069943 0.38124 22 22 22
-0.041921 0.069952 0.38136 9 9 9
-0.040421 0.07039 0.38381 8 8 8
-0.042211 0.076856 0.41914 11 11 11
-0.041061 0.078331 0.42724 12 12 12
-0.039641 0.079414 0.43321 13 13 13
-0.03802 0.080188 0.43749 12 12 12
-0.036272 0.080763 0.44067 13 13 13
-0.034402 0.081121 0.44268 11 11 11
-0.03253 0.081517 0.44489 12 12 12
-0.030654 0.081955 0.44732 12 12 12
-0.028725 0.082305 0.44926 12 12 12
-0.026437 0.0816 0.44545 11 11 11
-0.024904 0.083303 0.45478 11 11 11
-0.023171 0.084587 0.46182 12 12 12
-0.021 0.08437 0.46066 11 11 11
-0.01893 0.084553 0.46168 10 10 10
-0.016901 0.084993 0.46411 12 12 12
-0.01481 0.085198 0.46524 12 12 12
-0.012602 0.084691 0.46249 12 12 12
-0.010467 0.084562 0.4618 11 11 11
-0.008293 0.083979 0.45862 14 14 14
-0.005985 0.08119 0.4434 20 20 20
-0.003765 0.077312 0.42223 43 43 43
-0.001804 0.076207 0.41619 62 62 62
0.000102 0.075224 0.41083 77 77 77
0.001971 0.074694 0.40793 94 94 94
0.003819 0.074286 0.4057 93 93 93
0.005659 0.074035 0.40432 63 63 63
0.00747 0.073623 0.40207 83 83 83
0.009266 0.073254 0.40004 83 83 83
0.011086 0.073169 0.39957 86 86 86
0.012891 0.073018 0.39873 89 89 89
0.014597 0.072417 0.39543 111 111 111
0.016397 0.072361 0.39511 120 120 120
0.018226 0.072433 0.39548 122 122 122
0.019973 0.072196 0.39417 134 134 134
0.021703 0.071944 0.39276 136 136 136
0.023421 0.07169 0.39135 147 147 147
0.025203 0.071656 0.39113 149 149 149
0.027027 0.071737 0.39154 144 144 144
0.028871 0.071858 0.39217 138 138 138
0.03072 0.071976 0.39277 135 135 135
0.032563 0.072069 0.39323 128 128 128
0.034503 0.072355 0.39475 123 123 123
0.036426 0.072578 0.39591 121 121 121
0.03832 0.072725 0.39666 117 117 117
0.040098 0.07265 0.39619 110 110 110
0.042049 0.07288 0.39738 101 101 101
0.04418 0.07339 0.4001 102 102 102
0.046278 0.073807 0.4023 99 99 99
0.048356 0.074161 0.40414 97 97 97
0.051579 0.076179 0.41506 86 86 86
0.054511 0.077641 0.42293 75 75 75
0 0 0 0 0 0
0 0 0 0 0 0
0 0 0 0 0 0
0 0 0 0 0 0
0 0 0 0 0 0
0 0 0 0 0 0
0 0 0 0 0 0
0 0 0 0 0 0
0 0 0 0 0 0
0.106614 0.111948 0.6079 33 33 33
0.109396 0.111927 0.60753 37 37 37
0.109778 0.109515 0.59417 40 40 40
0.107925 0.105043 0.56964 52 52 52
0.109376 0.103924 0.56329 49 49 49
0.113884 0.105694 0.57259 38 38 38
0.119252 0.108163 0.58565 30 30 30
0.122869 0.108971 0.58969 25 25 25
0.126487 0.109744 0.59352 22 22 22
0.12901 0.109554 0.59212 20 20 20
0.131405 0.109265 0.59017 19 19 19
0.133041 0.10837 0.58493 17 17 17
0 0 0 0 0 0
0.133942 0.104831 0.56499 17 17 17
0.137981 0.105917 0.5704 16 16 16
0.140084 0.105505 0.56771 15 15 15
0.138087 0.102077 0.54879 17 17 17
0.141052 0.102375 0.5499 19 19 19
0.145016 0.103374 0.55475 21 21 21
0.147142 0.103051 0.55248 21 21 21
0.148938 0.102512 0.54904 23 23 23
0.153564 0.103907 0.55592 23 23 23
0.155642 0.103559 0.55345 24 24 24
0.158937 0.104019 0.55528 25 25 25
0.160325 0.103236 0.55045 24 24 24
0.163146 0.103387 0.55058 25 25 25
0.167126 0.104256 0.5545 26 26 26
0.169225 0.103942 0.5521 27 27 27
0.171016 0.103452 0.54875 27 27 27
0.173822 0.103581 0.54866 28 28 28
0.174133 0.102242 0.54078 28 28 28
0.178961 0.103555 0.5469 29 29 29
0.182376 0.104025 0.54852 32 32 32
0.184088 0.103524 0.545 35 35 35
0.189328 0.104993 0.55183 44 44 44
0.19275 0.105427 0.55317 55 55 55
0.194177 0.104773 0.54878 73 73 73
0.198501 0.105679 0.55253 89 89 89
0.200958 0.105581 0.551 112 112 112
0.204249 0.105917 0.55171 129 129 129
0.206242 0.105581 0.5489 138 138 138
0.20824 0.105255 0.54613 146 146 146
0.210676 0.105156 0.54452 144 144 144
0.212134 0.104577 0.54042 141 141 141
0.213793 0.104111 0.5369 142 142 142
0.216549 0.104183 0.53614 139 139 139
0.219052 0.104134 0.53475 143 143 143
0.220889 0.103772 0.53176 141 141 141
0.222576 0.10335 0.52847 145 145 145
0.224831 0.103198 0.52656 139 139 139
0.227194 0.103098 0.52493 138 138 138
0.22941 0.102935 0.52299 134 134 134
0.2312 0.102586 0.52013 134 134 134
0.231113 0.101421 0.51317 129 129 129
0.233537 0.101372 0.51189 125 125 125
0.235545 0.101144 0.50975 124 124 124
0.23758 0.100934 0.50773 120 120 120
0.239855 0.100828 0.50629 114 114 114
